# .PCD v0.7 - Point Cloud Data file format
VERSION 0.7
FIELDS x y z rgb normal_x normal_y normal_z curvature
SIZE 4 4 4 4 4 4 4 4
TYPE F F F U F F F F
COUNT 1 1 1 1 1 1 1 1
WIDTH 243
HEIGHT 1
VIEWPOINT 0 0 0 1 0 0 0
POINTS 243
DATA ascii
0.02891165 0.047991306 0.23040487 0 -0.39997709 -0.58987153 -0.70147687 0.061933167
0.024374545 0.04996103 0.23125795 0 -0.34859496 -0.54778922 -0.76053178 0.056286164
0.025409639 0.045382798 0.23282781 0 -0.22913021 -0.25795737 -0.93859327 0.05759069
0.025076032 0.040092766 0.23235121 0 -0.22873573 -0.010167017 -0.97343546 0.019455895
0.02460283 0.034714401 0.23167077 0 -0.073102869 0.11300324 -0.99090171 0.003338492
0.025837839 0.029350489 0.23081318 0 0.0099380566 0.15974602 -0.98710817 0.00034505472
0.024536967 0.024936616 0.23001698 0 -0.021497879 0.16053131 -0.98679662 0.00048584235
0.020097077 0.050370574 0.23249142 0 -0.25067505 -0.45620462 -0.85383803 0.048773643
0.02045542 0.045495749 0.233254 0 -0.14798048 -0.20800492 -0.96686906 0.052187406
0.019992769 0.04007417 0.23278801 0 -0.094004951 0.059457958 -0.99379462 0.014549848
0.019453585 0.03471303 0.23168008 0 -0.0017397084 0.14308378 -0.98970908 0.00017100452
0.020846665 0.03113544 0.23111896 0 -0.0049649295 0.15019566 -0.98864383 0.00025365403
0.020007432 0.025513142 0.23025303 0 -0.015248443 0.14563639 -0.98922068 0.00033968347
0.019798756 0.020308673 0.22957103 0 -0.02556069 0.13775192 -0.99013686 0.00036751121
0.015311658 0.054651946 0.23043425 0 -0.21374476 -0.66109687 -0.71921074 0.036020439
0.015471697 0.050663412 0.23331839 0 -0.14517245 -0.36203966 -0.92078894 0.040017538
0.015319705 0.045514554 0.23351867 0 -0.086845785 -0.11636536 -0.98940229 0.033384319
0.014794469 0.0400787 0.23251732 0 -0.01447413 0.10928699 -0.99390483 0.0015349464
0.014304161 0.034712493 0.23168452 0 -0.0019233595 0.14244679 -0.98980057 0.00014223333
0.015695333 0.031132132 0.23114091 0 -0.004928703 0.14453368 -0.98948765 0.00020103595
0.014938533 0.025565088 0.23032923 0 -0.006392756 0.14333957 -0.98965293 0.00027409109
0.014717996 0.020355552 0.22962292 0 -0.003405724 0.1375197 -0.99049318 0.00037029825
0.0093071461 0.054148227 0.23225734 0 -0.12622777 -0.54651493 -0.82788163 0.053890105
0.011046171 0.05018723 0.23356959 0 -0.095816381 -0.29753682 -0.94989002 0.034660395
0.010155559 0.045492083 0.23352155 0 -0.035550218 -0.052159257 -0.99800581 0.02903904
0.0096463561 0.04008013 0.23250529 0 -0.0043386887 0.11600021 -0.9932397 0.00073205266
0.010871172 0.034709603 0.23170492 0 -0.00029350849 0.14235385 -0.98981577 0.00015271008
0.0105443 0.031129807 0.23115644 0 0.00037566409 0.14123698 -0.98997575 0.00018550093
0.009872973 0.025626063 0.23035583 0 -0.0026611274 0.14045629 -0.99008334 0.00031164431
0.0095577836 0.020353764 0.22962067 0 0.0017180787 0.13858271 -0.99034935 0.0003807607
0.0051463246 0.053779125 0.23268412 0 -0.064641081 -0.51857877 -0.85258287 0.056772143
0.0053228736 0.049062431 0.2336943 0 -0.016089803 -0.17796752 -0.98390484 0.02771239
0.0050088763 0.045468211 0.23342346 0 -0.019862652 -0.0078102192 -0.99977225 0.018004155
0.0044994354 0.040084034 0.23246323 0 -0.00040150329 0.12343225 -0.9923529 0.00028686182
0.0057216883 0.034710467 0.23169957 0 0.0020334027 0.14255421 -0.9897849 0.00014620078
0.005392909 0.031130046 0.23115574 0 0.0050995294 0.14172205 -0.98989332 0.00020013582
0.0047142506 0.025623709 0.230363 0 0.0069222972 0.14414354 -0.98953253 0.00029519136
0.0044041872 0.020356387 0.2296208 0 0.0079488987 0.1420306 -0.98983032 0.00033887546
0.0001372695 0.053829819 0.23287487 0 0.0085914293 -0.46511948 -0.88520628 0.058852538
0.00017851591 0.049093872 0.23384798 0 0.0052832966 -0.17387882 -0.98475289 0.039086368
-0.00015562773 0.045482934 0.23349297 0 -0.00067670963 -0.014124474 -0.99990004 0.028452486
-1.9848347e-05 0.040679961 0.23256016 0 -0.0010322231 0.12103113 -0.99264818 0.00034711964
0.00057226419 0.034713358 0.23168015 0 0.0025982081 0.14384227 -0.9895972 0.0001533594
0.00024169683 0.031135082 0.23112309 0 0.0072114156 0.14618473 -0.98923099 0.0002064812
-0.00062596798 0.025516123 0.23023033 0 0.012708097 0.14478727 -0.98938119 0.0002901362
-0.00075232983 0.020372629 0.22950912 0 0.0092160162 0.13630252 -0.99062443 0.00043888291
-0.0049279332 0.053780705 0.23248948 0 0.078862578 -0.53565288 -0.84074771 0.054223709
-0.0049825311 0.049089909 0.23380032 0 0.071846701 -0.18625683 -0.97987062 0.046165999
-0.0053463578 0.045474112 0.23353496 0 0.091979757 -0.019024119 -0.99557912 0.026775109
-0.0047053695 0.039484113 0.23239829 0 -0.00040890588 0.13082877 -0.99140489 0.00045526563
-0.0045770407 0.03471607 0.23166277 0 0.0026363765 0.14681718 -0.98916012 0.0001953289
-0.004909277 0.031140029 0.23109175 0 0.0055895094 0.15229529 -0.98831922 0.00024809074
-0.0051542521 0.026127964 0.2302275 0 0.011471059 0.14713033 -0.98905063 0.00033491355
-0.0085628629 0.053656578 0.23240748 0 0.1313837 -0.50646812 -0.85219032 0.053476915
-0.0083540678 0.049016625 0.23340705 0 0.097696237 -0.24420336 -0.96479023 0.041453242
-0.0087170005 0.045465142 0.23308483 0 0.1971578 -0.084058337 -0.97676146 0.028475007
-0.0092255473 0.040081948 0.23248427 0 0.017702684 0.11695327 -0.99297965 0.00093751325
-0.0097267628 0.034708947 0.23171155 0 -0.016173609 0.1500223 -0.98855031 0.00022502319
-0.010061264 0.031137943 0.23110907 0 -0.018304074 0.16156003 -0.98669314 0.00033586199
-0.0098488927 0.024942786 0.22997312 0 -0.009790631 0.15808995 -0.98737615 0.00051493291
0.028424263 0.050626874 0.22711827 0 -0.50253528 -0.64733112 -0.57308 0.072340198
0.02377063 0.053471297 0.2253814 0 -0.39312041 -0.77697045 -0.49170452 0.033490106
0.026214123 0.050941288 0.22899464 0 -0.43420997 -0.63198882 -0.64191264 0.076674007
0.024680912 0.020145506 0.22932115 0 -0.034069277 0.14700972 -0.98854816 0.00034543034
0.0248245 0.015340835 0.22867849 0 -0.07571958 0.1379973 -0.98753393 0.0004976287
0.025433362 0.0093345046 0.22782424 0 -0.067744419 0.13110639 -0.98905098 1.7911336e-05
0.025111377 0.0057210028 0.22735229 0 -0.074405439 0.13079618 -0.98861325 4.768353e-05
0.024629235 0.00029057264 0.22667733 0 -0.10148022 0.12465587 -0.98699683 0.00037221622
0.024147511 -0.0051538646 0.2260628 0 -0.10696581 0.12645565 -0.98618823 0.00033436602
0.024870038 -0.011101395 0.22519782 0 -0.13883285 0.11917579 -0.98311877 0.00026619088
0.024901867 -0.016028494 0.22456709 0 -0.12191555 0.11534259 -0.9858157 0.00055780908
0.020006597 0.054733217 0.22661416 0 -0.33895338 -0.76839334 -0.54284644 0.031307261
0.020363867 0.014260292 0.22885637 0 -0.044550262 0.12643635 -0.99097383 0.00042063644
0.020445526 0.0094085038 0.22821037 0 -0.049873732 0.13069178 -0.9901678 0.00056580274
0.020121694 0.0057928562 0.22776417 0 -0.046428178 0.13021871 -0.99039763 0.00054250879
0.019684255 0.00040656328 0.22703783 0 -0.033501051 0.12680972 -0.9913612 0.00046422286
0.019325972 -0.0049341917 0.2263512 0 -0.027148873 0.1258239 -0.99168104 0.00036750778
0.020563245 -0.010376722 0.2256891 0 -0.052255563 0.12801445 -0.99039471 0.0006006594
0.020078599 -0.01581347 0.22493653 0 -0.031804454 0.12568264 -0.99156058 0.00049620692
0.019754469 -0.019444466 0.22445087 0 -0.01852916 0.12213921 -0.99234003 0.00036207412
0.01548785 0.056734264 0.22583765 0 -0.27130514 -0.76978248 -0.57777882 0.032268226
0.01594919 0.014941722 0.22896641 0 -0.008995357 0.13046156 -0.99141252 0.00044390181
0.015460491 0.0095346272 0.2282235 0 0.0014282217 0.13349164 -0.99104893 0.00046763881
0.015135407 0.0059239864 0.22774442 0 0.0050921771 0.129484 -0.99156845 0.00043193001
0.014645934 0.00050503016 0.22699876 0 0.0034804123 0.12701064 -0.99189526 0.00041145436
0.014156997 -0.0049231946 0.22628458 0 0.0088442173 0.12877171 -0.99163485 0.000366455
0.015289843 -0.010438889 0.22562321 0 0.0083247134 0.13119045 -0.99132228 0.00041717838
0.014718115 -0.015928209 0.22481211 0 0.010056226 0.12542754 -0.99205184 0.00034635249
0.016301036 -0.019440472 0.22442514 0 0.0065521039 0.12241733 -0.99245703 0.00033298644
0.0095546246 0.057510883 0.22739181 0 -0.1604863 -0.73734581 -0.65617472 0.027908005
0.010428071 0.014712423 0.22880229 0 -0.0029285306 0.13604923 -0.99069774 0.00040813544
0.0099345446 0.0093193352 0.22793409 0 0.0024114309 0.13869956 -0.99033159 0.00043285027
0.009606123 0.0057093799 0.2274408 0 0.0021100861 0.12929179 -0.99160433 0.00046105337
0.009742558 0.00087070465 0.22693691 0 0.0032182469 0.12693191 -0.99190623 0.00041084955
0.010342896 -0.0051663816 0.22615561 0 0.0056217648 0.13205729 -0.99122614 0.00039318329
0.0098497272 -0.010590225 0.22532699 0 0.012357709 0.13707075 -0.99048418 0.00038492322
0.0093564987 -0.016026229 0.22454736 0 0.015840368 0.12993373 -0.99139613 0.00036521934
0.0049589872 0.057622552 0.22811387 0 -0.096751645 -0.722449 -0.68462145 0.030403411
0.0052614212 0.014712244 0.2288041 0 0.0066996338 0.13493051 -0.99083239 0.00047403862
0.0047667623 0.0093129277 0.22798155 0 0.0053081326 0.13590588 -0.99070752 0.00045992844
0.0044366717 0.0057021081 0.22749685 0 0.0016833937 0.12864968 -0.99168867 0.00048654791
0.0050744414 -0.0003067255 0.22677194 0 0.0022056194 0.12569508 -0.99206644 0.00037340703
0.0053442717 -0.0050379336 0.22613107 0 -0.0050099683 0.13323529 -0.99107176 0.00039518255
0.0047636628 -0.010529071 0.2253605 0 -0.0043007163 0.13861395 -0.99033719 0.00036592144
0.0059024692 -0.01602158 0.22451149 0 0.00038185771 0.13237108 -0.99120015 0.00037939797
0.00044429302 0.058641106 0.22631633 0 -0.032061994 -0.68965399 -0.72342891 0.036206096
0.00046473742 0.014954358 0.22885811 0 -0.00094951788 0.12970912 -0.99155164 0.00048185221
-3.1292439e-05 0.0095494986 0.22812653 0 -0.007073543 0.13286726 -0.9911086 0.00051219983
-0.00036656857 0.0059353709 0.22765803 0 -0.012550515 0.12668842 -0.99186313 0.00040748413
-0.00023466349 0.001114428 0.2270292 0 -0.0057142396 0.1267496 -0.99191833 0.00041848142
0.0003580451 -0.0049241185 0.22628653 0 -0.0073422575 0.13104084 -0.99134982 0.00036642153
-0.00014072657 -0.01036191 0.22558868 0 -0.011454653 0.13607343 -0.99063253 0.00031619528
0.00072211027 -0.016038805 0.22464132 0 -0.011525924 0.13498685 -0.99078035 0.00028509254
-0.005459249 0.057927132 0.22840455 0 0.12306763 -0.69102108 -0.71228099 0.032413341
-0.00456357 0.020135432 0.22939421 0 0.010427386 0.13556182 -0.99071401 0.00045338579
-0.005064249 0.014719278 0.22876802 0 0.0065319426 0.11626727 -0.99319649 0.00055889919
-0.0055645704 0.0092974305 0.22810498 0 -0.0008441371 0.12599808 -0.99203014 0.00056718022
-0.0058996677 0.0056806803 0.22766235 0 -0.0033376268 0.13088787 -0.9913916 0.00055444054
-0.0051860809 -0.00025883317 0.22684446 0 0.00079460494 0.13018896 -0.99148887 0.00044826578
-0.0049968362 -0.0050512254 0.22627166 0 0.0010328334 0.12564117 -0.9920752 0.00041167741
-0.0054083467 -0.010430545 0.22560897 0 -0.00018768838 0.13436814 -0.99093145 0.00037516037
-0.0040941834 -0.015795887 0.22480489 0 -0.0062466101 0.13493514 -0.99083477 0.0003146636
-0.0094743967 0.057579994 0.22749011 0 0.2678608 -0.67481881 -0.68765557 0.033130459
-0.0097234249 0.020144582 0.22933023 0 -0.03913543 0.13168839 -0.99051839 0.00057575147
-0.010061562 0.014819831 0.22884981 0 -0.10405099 0.1176655 -0.98758709 0.00050160725
-0.010356545 0.0095360875 0.2282155 0 -0.11196958 0.13027161 -0.98513556 0.00061050081
-0.010693491 0.0059231222 0.22775833 0 -0.09720961 0.14733098 -0.98429865 0.00056236016
-0.0098524094 0.00026732683 0.22685353 0 -0.0095079187 0.13645394 -0.99060076 0.00047599612
-0.010357916 -0.0051555336 0.22607605 0 -0.022681249 0.13106494 -0.99111432 0.00046914318
-0.010677397 -0.010488272 0.2255501 0 0.0039811106 0.12751311 -0.99182886 0.00052582653
-0.0092725158 -0.015800297 0.22483377 0 0.0047952589 0.13094494 -0.99137801 0.00045051539
-0.013254046 0.056683242 0.2260372 0 0.49588975 -0.61288518 -0.61519521 0.0346823
-0.012925625 0.00050029159 0.22703259 0 -0.085855141 0.15274458 -0.98452932 0.00051463896
-0.013810515 -0.005168438 0.22618514 0 -0.041100342 0.1413362 -0.98910809 0.00045131546
-0.014016449 -0.010412544 0.22556978 0 -0.027689666 0.12920873 -0.99123073 0.00051889091
-0.014451742 -0.015801728 0.22483522 0 -0.012289699 0.12292343 -0.99234003 0.0004603744
0.028460205 0.051791877 0.22244455 0 -0.59409207 -0.73472089 -0.32747489 0.028279848
0.030683875 0.049681842 0.22221126 0 -0.78203791 -0.56803638 -0.25642043 0.031722829
0.026316226 0.052735925 0.22412744 0 -0.48613468 -0.76885134 -0.41538021 0.028910067
0.024579585 -0.019675821 0.22420445 0 -0.10282368 0.11295929 -0.98826492 0.00036495208
0.024357259 -0.024957687 0.22366121 0 -0.065685034 0.11218494 -0.99151403 0.00034944565
0.02568984 -0.03035453 0.22301951 0 -0.032532983 0.17369369 -0.98426223 0.0012682823
0.025269151 -0.034044057 0.22235087 0 -0.05199755 0.23908068 -0.96960646 0.0017529308
0.023898602 -0.04007104 0.22050336 0 -0.12434436 0.40763146 -0.90464085 0.0019772362
0.021627188 0.055518746 0.22228949 0 -0.41785958 -0.75520927 -0.505027 0.0432491
0.019265056 -0.024910927 0.22383815 0 -0.0099985404 0.12320355 -0.99233103 0.00041505884
0.020506382 -0.030376107 0.22315912 0 -0.027878543 0.16384158 -0.98609263 0.0010672124
0.02017802 -0.034000874 0.22256641 0 -0.033650488 0.21526907 -0.97597486 0.0021144545
0.019894302 -0.039097518 0.22125439 0 -0.070727132 0.31428602 -0.94669002 0.0018422105
0.015808702 -0.024908781 0.22381967 0 0.0034691046 0.11742669 -0.99307549 0.00038472819
0.015318751 -0.030380011 0.22318967 0 -0.0079480773 0.14463957 -0.98945254 0.0008598576
0.014991105 -0.034016371 0.22265609 0 -0.018502671 0.19075711 -0.9814629 0.0016695806
0.015274942 -0.040258318 0.22129722 0 -0.058304831 0.32737124 -0.94309521 0.0028524676
0.008897543 0.059673697 0.22175774 0 -0.18000568 -0.64623815 -0.74160248 0.055863671
0.010753632 -0.019677967 0.22422466 0 0.012695918 0.1174514 -0.99299747 0.00030844167
0.010441542 -0.025020152 0.22365627 0 0.013414622 0.11022705 -0.9938159 0.00014433223
0.010129929 -0.030369371 0.22310635 0 0.0021622144 0.12831502 -0.99173111 0.00038507031
0.009801507 -0.034022719 0.22269294 0 -0.0097940452 0.16841885 -0.98566681 0.0017759516
0.0098631382 -0.03890729 0.22184309 0 -0.029947728 0.26148736 -0.96474218 0.0034379016
0.0095118284 -0.045515567 0.21959588 0 -0.061402563 0.4782002 -0.87610173 0.0039171744
0.004296422 0.075836957 0.21976934 0 -0.089525074 0.053976644 -0.99452084 0.0028335105
0.0042979121 0.070609629 0.21941803 0 -0.095605113 -0.038055956 -0.99469161 0.018357288
0.0043245554 0.065396279 0.2195792 0 -0.12292669 -0.31388292 -0.94147038 0.048375454
0.0047333241 0.061386764 0.22129332 0 -0.12127612 -0.54130101 -0.83203685 0.059622433
0.0055711865 -0.019659817 0.22407006 0 0.001999845 0.12031478 -0.99273378 0.00030480311
0.0052576065 -0.025008023 0.22355221 0 0.0035909689 0.10778823 -0.99416739 0.00019483268
0.0049433112 -0.03036806 0.22310005 0 0.00033014402 0.11741363 -0.99308306 0.00021561694
0.0046108961 -0.034024954 0.22270642 0 -0.0022076191 0.15595646 -0.9877615 0.0010619437
0.0051297545 -0.040137708 0.22171639 0 -0.018878961 0.27445269 -0.96141529 0.0033444306
0.0045297742 -0.045392454 0.21991704 0 -0.03307898 0.44915459 -0.89284152 0.0048166094
-0.00072300434 0.075913399 0.21993423 0 0.0062944652 0.006814417 -0.99995697 0.0022325278
-0.00070846081 0.070617616 0.21946299 0 0.011173625 0.046411633 -0.99885994 0.031738974
-0.00073051453 0.065425664 0.21976209 0 0.023108052 -0.30701521 -0.951424 0.060870107
-0.00069594383 0.062556416 0.22113717 0 0.011517979 -0.59216249 -0.80573624 0.060870107
0.00038844347 -0.019668132 0.22413719 0 -0.0074383565 0.12506583 -0.99212056 0.00033808564
7.1644783e-05 -0.025008708 0.22355974 0 -0.0054495563 0.11035297 -0.99387753 0.00027419868
-0.00024420023 -0.030367345 0.22309339 0 -5.1392373e-05 0.11364125 -0.99352187 0.00011606215
-0.00057798624 -0.034022659 0.22270024 0 0.00040300575 0.15004176 -0.98867959 0.00093456649
0.00060749054 -0.039507419 0.22185159 0 -0.0063536176 0.25433356 -0.96709573 0.0044624219
-0.00060349703 -0.045358002 0.22001934 0 -0.0083797313 0.4375163 -0.89917141 0.0043050614
-0.0042858124 0.07060954 0.21955301 0 0.025865758 0.12211006 -0.99217951 0.038129978
-0.0043190122 0.065380692 0.2196032 0 0.1071806 -0.31160522 -0.94414753 0.06041475
-0.0046005845 0.061137229 0.22211172 0 0.097108603 -0.59593487 -0.79713964 0.052440304
-0.0047944784 -0.01967901 0.22422339 0 -0.0064335107 0.12736198 -0.99183547 0.00032007688
-0.0051138997 -0.025012434 0.22359112 0 -0.0048485217 0.11352307 -0.99352354 0.00027224014
-0.0054317117 -0.030364305 0.22306946 0 0.00059136155 0.11512015 -0.9933514 0.00020016826
-0.0057677627 -0.034020066 0.22268537 0 0.0026607979 0.14957729 -0.98874646 0.00090107368
-0.0045979619 -0.039506406 0.22179569 0 0.0067946888 0.24816065 -0.96869504 0.0033771789
-0.0041069984 -0.04538694 0.21999229 0 0.0034027856 0.43401387 -0.90089977 0.0055011171
-0.0099788904 -0.019683629 0.22426157 0 6.1455765e-05 0.12637627 -0.9919824 0.00040092791
-0.010299623 -0.025015682 0.22361772 0 -0.00087063015 0.11747099 -0.99307591 0.00032848181
-0.010619342 -0.030363321 0.2230622 0 0.00080476742 0.11467034 -0.99340326 0.00025393534
-0.0092276335 -0.03401956 0.22268169 0 0.0026084497 0.15072739 -0.98857194 0.0010211485
-0.009834826 -0.039526016 0.22168951 0 0.0079607526 0.22253148 -0.97489297 0.00096063456
-0.015163839 -0.019681484 0.22424537 0 0.0064826128 0.12181173 -0.99253201 0.00039913694
-0.015485704 -0.025008291 0.22355527 0 -0.0023257828 0.10993236 -0.99393636 0.00046275061
-0.015807152 -0.030364811 0.22307628 0 -0.010397269 0.11775815 -0.99298787 0.00032070553
-0.014417291 -0.03401491 0.22265047 0 2.2668676e-06 0.13696037 -0.99057651 0.00018555341
0.02362287 0.079650998 0.2149196 0 -0.41231325 0.025887836 -0.91067427 0.0031542666
0.023584247 0.07439661 0.21488658 0 -0.40814915 0.0050302707 -0.9129014 0.0029902514
0.02361393 0.070958436 0.21486846 0 -0.40820307 0.0010288651 -0.91289061 0.0027963524
0.023591995 0.065729827 0.21482268 0 -0.4239819 -0.049202047 -0.90433317 0.014412116
0.023429751 0.060392439 0.21459644 0 -0.51057756 -0.33492145 -0.7919206 0.071154535
0.024368227 0.056215465 0.21587625 0 -0.561369 -0.45773602 -0.68945092 0.066365391
0.01957047 0.080177277 0.21657841 0 -0.34389046 0.045692991 -0.93789738 0.0020800855
0.019483805 0.074901909 0.21651022 0 -0.33671859 0.0073992591 -0.94157624 0.0017093131
0.019497573 0.069701284 0.21650057 0 -0.33689216 -0.003758532 -0.94153571 0.0015670412
0.019279361 0.064369589 0.21609479 0 -0.39420101 -0.20144464 -0.89667475 0.052081365
0.019088984 0.059966117 0.21680301 0 -0.4270609 -0.45053294 -0.78398919 0.06990923
0.0218876 0.056784451 0.21743374 0 -0.51003712 -0.55582368 -0.65644664 0.074555732
0.015206158 0.078778565 0.21790393 0 -0.26199847 0.02180242 -0.96482199 0.0023501772
0.015157163 0.075275838 0.21786733 0 -0.26090693 0.0075908327 -0.96533412 0.0025546907
0.015189648 0.070099503 0.2178119 0 -0.27473518 -0.0177557 -0.96135598 0.0025196697
0.015116274 0.064827323 0.21762891 0 -0.31429827 -0.27174023 -0.90960097 0.047638938
0.015514016 0.060094059 0.21849948 0 -0.36196563 -0.50267643 -0.78504604 0.069488287
0.014227331 -0.045814991 0.21892877 0 -0.11378457 0.53699559 -0.83587605 0.003140107
0.012248755 0.079000801 0.21863969 0 -0.21323198 0.026971821 -0.97662926 0.0035651831
0.010688961 0.0756042 0.21889314 0 -0.18613157 0.0096537154 -0.98247743 0.0029881585
0.010697603 0.070404977 0.2188637 0 -0.19107251 -0.020835023 -0.98135477 0.0044169365
0.010628283 0.065127552 0.21863195 0 -0.2399015 -0.31099406 -0.91963577 0.044040643
0.01144588 0.060942262 0.21939118 0 -0.27535626 -0.48974913 -0.82723922 0.064278975
0.005629003 -0.050262809 0.21656512 0 -0.067704938 0.68386227 -0.72646302 0.0025429272
0.00070571899 -0.050096631 0.2169944 0 -0.016361618 0.66398305 -0.74756861 0.0033292824
-0.0099921823 0.065001905 0.21862046 0 0.19461775 -0.19751862 -0.96078628 0.06949684
-0.010786712 0.061074018 0.21961467 0 0.21844947 -0.49671811 -0.83997077 0.061207615
0.03005743 0.080421537 0.21147598 0 -0.52766889 0.027349686 -0.84900969 0.0015811349
0.030040264 0.075167567 0.211455 0 -0.52221066 0.0033977095 -0.85280979 0.0012810621
0.030079901 0.069953889 0.211509 0 -0.52052945 -0.0038660183 -0.85383499 0.0010767445
0.030044317 0.064712793 0.21144284 0 -0.51806432 -0.016702099 -0.85517859 0.0015415271
0.029571414 0.059164941 0.21076693 0 -0.62152749 -0.16306873 -0.76623249 0.078512609
0.029526174 0.054748952 0.21159114 0 -0.69825292 -0.33669209 -0.63172883 0.084326968
0.031091154 0.05034861 0.21216168 0 -0.80797118 -0.45787257 -0.37085757 0.10401864
0.026376247 0.084573299 0.21381095 0 -0.4777559 0.063432835 -0.87619954 0.0031139818
0.026257336 0.079293251 0.21363333 0 -0.45899051 0.021308852 -0.88818562 0.0033232532
0.026252151 0.074072063 0.21361068 0 -0.45478222 0.0035459716 -0.89059561 0.0022536917
0.026254058 0.070584685 0.21361616 0 -0.4536489 0.00070320343 -0.89118022 0.0019473771
0.026191711 0.065347373 0.21350339 0 -0.47722903 -0.035853829 -0.87804729 0.013546558
0.026039124 0.059980989 0.21328023 0 -0.56164908 -0.28557023 -0.77653068 0.071584679
0.026736856 0.05542621 0.21429673 0 -0.62938869 -0.43538171 -0.64367121 0.078985803
0.034484804 0.074889034 0.20847762 0 -0.59886026 0.0031726814 -0.80084723 0.00051639997
0.035283148 0.070068479 0.20791197 0 -0.61270559 -0.0047001848 -0.79029727 0.00047524442
0.034901619 0.065483242 0.20822084 0 -0.60668623 -0.006281008 -0.79491663 0.00056023319
0.034952223 0.060230017 0.20830917 0 -0.58290303 -0.059419535 -0.81036615 0.0013021026
