# .PCD v0.7 - Point Cloud Data file format
VERSION 0.7
FIELDS x y z rgb normal_x normal_y normal_z curvature
SIZE 4 4 4 4 4 4 4 4
TYPE F F F U F F F F
COUNT 1 1 1 1 1 1 1 1
WIDTH 243
HEIGHT 1
VIEWPOINT 0 0 0 1 0 0 0
POINTS 243
DATA ascii
0.36950868 0.78358406 1.158998 0 0.58987153 0.39997452 0.70147836 0.061933167
0.36753896 0.78812116 1.158145 0 0.54778922 0.34859216 0.76053303 0.056286164
0.37211719 0.78708607 1.1565751 0 0.25795737 0.22912677 0.9385941 0.05759069
0.37740722 0.78741968 1.1570517 0 0.010167017 0.22873215 0.9734363 0.019455895
0.38278559 0.78789288 1.1577321 0 -0.11300324 0.073099226 0.99090201 0.003338492
0.3881495 0.78665787 1.1585897 0 -0.15974602 -0.0099416822 0.98710811 0.00034505472
0.39256337 0.78795874 1.1593859 0 -0.16053131 0.021494254 0.98679668 0.00048584235
0.36712942 0.79239863 1.1569115 0 0.45620462 0.25067192 0.85383892 0.048773643
0.37200424 0.79204029 1.1561489 0 0.20800492 0.14797693 0.96686959 0.052187406
0.37742582 0.79250294 1.1566149 0 -0.059457958 0.094001301 0.99379498 0.014549848
0.38278696 0.79304212 1.1577228 0 -0.14308378 0.0017360729 0.98970908 0.00017100452
0.38636455 0.79164904 1.1582839 0 -0.15019566 0.0049612978 0.98864383 0.00025365403
0.39198685 0.79248828 1.1591499 0 -0.14563639 0.015244809 0.98922074 0.00033968347
0.39719132 0.79269695 1.1598319 0 -0.13775192 0.025557052 0.99013698 0.00036751121
0.36284804 0.79718405 1.1589687 0 0.66109687 0.21374212 0.71921152 0.036020439
0.36683658 0.79702401 1.1560845 0 0.36203966 0.14516906 0.92078948 0.040017538
0.37198544 0.797176 1.1558843 0 0.11636536 0.086842149 0.98940259 0.033384319
0.37742129 0.79770124 1.1568856 0 -0.10928699 0.014470479 0.99390489 0.0015349464
0.3827875 0.79819155 1.1577184 0 -0.14244679 0.0019197237 0.98980057 0.00014223333
0.38636786 0.79680037 1.158262 0 -0.14453368 0.0049250685 0.98948765 0.00020103595
0.3919349 0.79755718 1.1590737 0 -0.14333957 0.0063891206 0.98965293 0.00027409109
0.39714444 0.79777771 1.15978 0 -0.1375197 0.0034020857 0.99049318 0.00037029825
0.36335176 0.80318856 1.1571456 0 0.54651493 0.12622473 0.82788211 0.053890105
0.36731276 0.80144954 1.1558334 0 0.29753682 0.095812894 0.94989038 0.034660395
0.37200791 0.80234015 1.1558814 0 0.052159257 0.035546552 0.99800593 0.02903904
0.37741986 0.80284935 1.1568977 0 -0.11600021 0.0043350402 0.9932397 0.00073205266
0.38279039 0.80162454 1.157698 0 -0.14235385 0.0002898727 0.98981577 0.00015271008
0.38637018 0.80195141 1.1582465 0 -0.14123698 -0.00037930047 0.98997575 0.00018550093
0.39187393 0.80262274 1.1590471 0 -0.14045629 0.0026574905 0.99008334 0.00031164431
0.39714622 0.80293792 1.1597823 0 -0.13858271 -0.0017217165 0.99034935 0.0003807607
0.36372086 0.80734938 1.1567189 0 0.51857877 0.064637952 0.85258311 0.056772143
0.36843756 0.80717283 1.1557087 0 0.17796752 0.016086189 0.9839049 0.02771239
0.37203178 0.80748683 1.1559795 0 0.0078102192 0.019858979 0.99977231 0.018004155
0.37741596 0.80799627 1.1569397 0 -0.12343225 0.00039785818 0.9923529 0.00028686182
0.38278952 0.80677402 1.1577034 0 -0.14255421 -0.0020370383 0.9897849 0.00014620078
0.38636994 0.8071028 1.1582472 0 -0.14172205 -0.0051031653 0.98989332 0.00020013582
0.39187628 0.80778146 1.15904 0 -0.14414354 -0.0069259321 0.98953253 0.00029519136
0.3971436 0.80809152 1.1597822 0 -0.1420306 -0.0079525346 0.98983032 0.00033887546
0.36367017 0.81235844 1.1565281 0 0.46511948 -0.0085946806 0.88520622 0.058852538
0.36840612 0.81231719 1.155555 0 0.17387882 -0.0052869138 0.98475289 0.039086368
0.37201706 0.81265134 1.15591 0 0.014124474 0.00067303679 0.99990004 0.028452486
0.37682003 0.81251556 1.1568428 0 -0.12103113 0.0010285769 0.99264818 0.00034711964
0.38278663 0.81192344 1.1577228 0 -0.14384227 -0.0026018431 0.9895972 0.0001533594
0.38636491 0.81225401 1.1582799 0 -0.14618473 -0.0072150491 0.98923099 0.0002064812
0.39198387 0.81312168 1.1591727 0 -0.14478727 -0.012711731 0.98938113 0.0002901362
0.39712736 0.81324804 1.1598939 0 -0.13630252 -0.0092196548 0.99062437 0.00043888291
0.36371928 0.81742364 1.1569135 0 0.53565288 -0.078865662 0.84074742 0.054223709
0.36841008 0.81747824 1.1556027 0 0.18625683 -0.0718503 0.97987038 0.046165999
0.37202588 0.81784207 1.1558681 0 0.019024119 -0.091983415 0.99557877 0.026775109
0.37801588 0.81720108 1.1570047 0 -0.13082877 0.00040526423 0.99140489 0.00045526563
0.38278392 0.81707275 1.1577402 0 -0.14681718 -0.0026400099 0.98916012 0.0001953289
0.38635996 0.81740499 1.1583112 0 -0.15229529 -0.0055931397 0.98831922 0.00024809074
0.39137203 0.81764996 1.1591755 0 -0.14713033 -0.011474692 0.98905057 0.00033491355
0.36384341 0.82105857 1.1569955 0 0.50646812 -0.13138683 0.85218984 0.053476915
0.36848336 0.82084978 1.155996 0 0.24420336 -0.097699784 0.96478987 0.041453242
0.37203485 0.82121271 1.1563182 0 0.084058337 -0.19716139 0.97676075 0.028475007
0.37741804 0.82172126 1.1569188 0 -0.11695327 -0.017706331 0.99297959 0.00093751325
0.38279104 0.82222247 1.1576915 0 -0.1500223 0.016169978 0.98855036 0.00022502319
0.38636205 0.82255697 1.158294 0 -0.16156003 0.018300449 0.9866932 0.00033586199
0.3925572 0.8223446 1.1594299 0 -0.15808995 0.0097870044 0.98737621 0.00051493291
0.36687312 0.78407139 1.1622846 0 0.64733112 0.5025332 0.57308185 0.072340198
0.36402869 0.78872502 1.1640215 0 0.77697045 0.39311859 0.49170595 0.033490106
0.3665587 0.78628153 1.1604083 0 0.63198882 0.43420762 0.64191425 0.076674007
0.39735448 0.7878148 1.1600817 0 -0.14700972 0.034065645 0.98854828 0.00034543034
0.40215915 0.78767115 1.1607244 0 -0.1379973 0.075715952 0.98753422 0.0004976287
0.40816548 0.78706229 1.1615787 0 -0.13110639 0.067740783 0.98905122 1.7911336e-05
0.41177899 0.78738427 1.1620506 0 -0.13079618 0.074401811 0.98861355 4.768353e-05
0.41720942 0.78786641 1.1627256 0 -0.12465587 0.10147659 0.98699719 0.00037221622
0.42265385 0.78834814 1.1633401 0 -0.12645565 0.10696219 0.98618865 0.00033436602
0.42860138 0.78762561 1.1642051 0 -0.11917579 0.13882925 0.98311931 0.00026619088
0.43352848 0.78759378 1.1648358 0 -0.11534259 0.12191193 0.98581618 0.00055780908
0.36276677 0.79248905 1.1627887 0 0.76839334 0.33895138 0.54284769 0.031307261
0.4032397 0.79213178 1.1605465 0 -0.12643635 0.044546623 0.99097401 0.00042063644
0.40809149 0.79205012 1.1611925 0 -0.13069178 0.049870096 0.99016798 0.00056580274
0.41170713 0.79237396 1.1616387 0 -0.13021871 0.046424538 0.99039781 0.00054250879
0.41709343 0.79281139 1.1623651 0 -0.12680972 0.033497408 0.99136132 0.00046422286
0.42243418 0.79316968 1.1630517 0 -0.1258239 0.027145229 0.99168116 0.00036750778
0.42787671 0.7919324 1.1637138 0 -0.12801445 0.052251924 0.99039489 0.0006006594
0.43331346 0.79241705 1.1644664 0 -0.12568264 0.03180081 0.9915607 0.00049620692
0.43694445 0.79274118 1.164952 0 -0.12213921 0.018525515 0.99234009 0.00036207412
0.36076573 0.7970078 1.1635653 0 0.76978248 0.27130303 0.57777983 0.032268226
0.40255827 0.79654646 1.1604365 0 -0.13046156 0.0089917155 0.99141258 0.00044390181
0.40796536 0.79703516 1.1611794 0 -0.13349164 -0.001431862 0.99104893 0.00046763881
0.411576 0.79736024 1.1616585 0 -0.129484 -0.0050958195 0.99156845 0.00043193001
0.41699496 0.79784971 1.1624042 0 -0.12701064 -0.0034840556 0.99189526 0.00041145436
0.42242318 0.79833865 1.1631184 0 -0.12877171 -0.0088478597 0.99163479 0.000366455
0.42793888 0.79720581 1.1637797 0 -0.13119045 -0.0083283549 0.99132222 0.00041717838
0.4334282 0.79777753 1.1645908 0 -0.12542754 -0.01005987 0.99205178 0.00034635249
0.43694046 0.79619461 1.1649778 0 -0.12241733 -0.0065557496 0.99245703 0.00033298644
0.35998911 0.80294102 1.1620111 0 0.73734581 0.16048388 0.65617532 0.027908005
0.40278757 0.80206758 1.1606007 0 -0.13604923 0.0029248914 0.99069774 0.00040813544
0.40818065 0.8025611 1.1614689 0 -0.13869956 -0.0024150687 0.99033159 0.00043285027
0.41179061 0.80288953 1.1619622 0 -0.12929179 -0.0021137286 0.99160433 0.00046105337
0.41662928 0.80275309 1.162466 0 -0.12693191 -0.0032218904 0.99190623 0.00041084955
0.42266637 0.80215275 1.1632473 0 -0.13205729 -0.0056254058 0.99122614 0.00039318329
0.42809021 0.80264592 1.164076 0 -0.13707075 -0.012361348 0.99048412 0.00038492322
0.43352622 0.80313915 1.1648556 0 -0.12993373 -0.01584401 0.99139607 0.00036521934
0.35987744 0.80753666 1.1612891 0 0.722449 0.096749127 0.68462181 0.030403411
0.40278774 0.80723423 1.1605989 0 -0.13493051 -0.0067032734 0.99083239 0.00047403862
0.40818706 0.80772889 1.1614214 0 -0.13590588 -0.0053117718 0.99070752 0.00045992844
0.41179788 0.80805898 1.1619061 0 -0.12864968 -0.0016870364 0.99168867 0.00048654791
0.41780671 0.80742121 1.162631 0 -0.12569508 -0.0022092634 0.99206644 0.00037340703
0.42253792 0.80715138 1.1632719 0 -0.13323529 0.0050063278 0.99107176 0.00039518255
0.42802906 0.80773199 1.1640425 0 -0.13861395 0.0042970786 0.99033719 0.00036592144
0.43352157 0.80659318 1.1648915 0 -0.13237108 -0.0003854986 0.99120015 0.00037939797
0.35885888 0.81205136 1.1630867 0 0.68965399 0.032059338 0.72342902 0.036206096
0.40254563 0.81203091 1.1605449 0 -0.12970912 0.00094587571 0.99155164 0.00048185221
0.40795049 0.81252694 1.1612765 0 -0.13286726 0.0070699025 0.9911086 0.00051219983
0.41156462 0.81286222 1.161745 0 -0.12668842 0.012546872 0.99186319 0.00040748413
0.41638556 0.81273031 1.1623738 0 -0.1267496 0.0057105962 0.99191833 0.00041848142
0.42242411 0.8121376 1.1631165 0 -0.13104084 0.0073386161 0.99134982 0.00036642153
0.4278619 0.81263638 1.1638143 0 -0.13607343 0.011451014 0.99063259 0.00031619528
0.43353879 0.81177354 1.1647617 0 -0.13498685 0.011522285 0.99078041 0.00028509254
0.35957286 0.8179549 1.1609985 0 0.69102108 -0.12307025 0.71228051 0.032413341
0.39736456 0.81705928 1.1600088 0 -0.13556182 -0.010431025 0.99071395 0.00045338579
0.40278071 0.8175599 1.160635 0 -0.11626727 -0.0065355906 0.99319649 0.00055889919
0.40820256 0.81806022 1.161298 0 -0.12599808 0.00084049319 0.99203014 0.00056718022
0.41181931 0.81839532 1.1617407 0 -0.13088787 0.0033339853 0.9913916 0.00055444054
0.41775882 0.81768173 1.1625586 0 -0.13018896 -0.00079824688 0.99148887 0.00044826578
0.42255121 0.81749249 1.1631314 0 -0.12564117 -0.0010364775 0.9920752 0.00041167741
0.42793053 0.817904 1.163794 0 -0.13436814 0.00018404848 0.99093145 0.00037516037
0.43329588 0.81658983 1.1645981 0 -0.13493514 0.0062429705 0.99083477 0.0003146636
0.35992 0.82197005 1.1619129 0 0.67481881 -0.26786333 0.68765455 0.033130459
0.39735541 0.82221913 1.1600728 0 -0.13168839 0.03913179 0.99051851 0.00057575147
0.40268016 0.82255721 1.1605532 0 -0.1176655 0.10404736 0.98758745 0.00050160725
0.4079639 0.82285219 1.1611875 0 -0.13027161 0.11196596 0.98513597 0.00061050081
0.41157687 0.82318914 1.1616447 0 -0.14733098 0.097205997 0.984299 0.00056236016
0.41723266 0.82234806 1.1625495 0 -0.13645394 0.0095042801 0.99060082 0.00047599612
0.42265552 0.82285357 1.163327 0 -0.13106494 0.022677608 0.99111438 0.00046914318
0.42798826 0.82317305 1.1638529 0 -0.12751311 -0.003984754 0.99182886 0.00052582653
0.43330029 0.82176816 1.1645693 0 -0.13094494 -0.0047989003 0.99137801 0.00045051539
0.36081675 0.8257497 1.1633658 0 0.61288518 -0.49589202 0.61519337 0.0346823
0.4169997 0.82542127 1.1623704 0 -0.15274458 0.085851528 0.98452961 0.00051463896
0.42266843 0.82630616 1.1632179 0 -0.1413362 0.04109671 0.98910826 0.00045131546
0.42791253 0.8265121 1.1638333 0 -0.12920873 0.027686024 0.99123085 0.00051889091
0.43330172 0.82694739 1.1645678 0 -0.12292343 0.012286054 0.99234009 0.0004603744
0.36570811 0.78403544 1.1669583 0 0.73472089 0.59409088 0.32747707 0.028279848
0.36781815 0.78181177 1.1671916 0 0.56803638 0.78203696 0.25642329 0.031722829
0.36476406 0.78617942 1.1652755 0 0.76885134 0.48613316 0.415382 0.028910067
0.43717581 0.78791606 1.1651984 0 -0.11295929 0.10282005 0.98826528 0.00036495208
0.44245768 0.78813839 1.1657417 0 -0.11218494 0.06568139 0.99151427 0.00034944565
0.44785452 0.78680581 1.1663834 0 -0.17369369 0.032529365 0.98426235 0.0012682823
0.45154405 0.7872265 1.167052 0 -0.23908068 0.051993988 0.96960664 0.0017529308
0.45757103 0.78859705 1.1688995 0 -0.40763146 0.12434103 0.90464133 0.0019772362
0.36198124 0.79086846 1.1671134 0 0.75520927 0.41785774 0.50502855 0.0432491
0.44241092 0.79323059 1.1655648 0 -0.12320355 0.0099948952 0.99233109 0.00041505884
0.4478761 0.79198927 1.1662438 0 -0.16384158 0.027874921 0.98609275 0.0010672124
0.45150086 0.79231763 1.1668365 0 -0.21526907 0.033646904 0.97597498 0.0021144545
0.45659751 0.79260135 1.1681485 0 -0.31428602 0.070723653 0.94669026 0.0018422105
0.44240877 0.79668695 1.1655833 0 -0.11742669 -0.0034727524 0.99307549 0.00038472819
0.44788 0.7971769 1.1662133 0 -0.14463957 0.0079444433 0.98945254 0.0008598576
0.45151636 0.79750454 1.1667469 0 -0.19075711 0.018499067 0.98146296 0.0016695806
0.45775831 0.79722071 1.1681057 0 -0.32737124 0.058301367 0.94309545 0.0028524676
0.35782629 0.80359811 1.1676452 0 0.64623815 0.18000296 0.74160314 0.055863671
0.43717796 0.80174202 1.1651783 0 -0.1174514 -0.012699565 0.99299741 0.00030844167
0.44252014 0.80205411 1.1657467 0 -0.11022705 -0.013418273 0.99381584 0.00014433223
0.44786936 0.80236572 1.1662966 0 -0.12831502 -0.0021658572 0.99173111 0.00038507031
0.45152271 0.80269414 1.16671 0 -0.16841885 0.0097904243 0.98566687 0.0017759516
0.45640728 0.80263251 1.1675599 0 -0.26148736 0.029944183 0.9647423 0.0034379016
0.46301556 0.80298382 1.1698071 0 -0.4782002 0.061399344 0.87610197 0.0039171744
0.34166303 0.80819923 1.1696336 0 -0.053976644 0.089521423 0.9945212 0.0028335105
0.34689036 0.80819774 1.1699849 0 0.038055956 0.095601462 0.99469197 0.018357288
0.35210371 0.80817109 1.1698238 0 0.31388292 0.12292323 0.94147086 0.048375454
0.35611323 0.80776232 1.1681097 0 0.54130101 0.12127306 0.83203727 0.059622433
0.43715981 0.80692446 1.1653329 0 -0.12031478 -0.0020034916 0.99273378 0.00030480311
0.44250801 0.80723804 1.1658508 0 -0.10778823 -0.0035946206 0.99416739 0.00019483268
0.44786805 0.80755234 1.1663029 0 -0.11741363 -0.0003337918 0.99308306 0.00021561694
0.45152494 0.80788475 1.1666965 0 -0.15595646 0.0022039909 0.9877615 0.0010619437
0.4576377 0.80736589 1.1676866 0 -0.27445269 0.018875429 0.96141535 0.0033444306
0.46289244 0.80796587 1.1694859 0 -0.44915459 0.033075701 0.89284164 0.0048166094
0.34158659 0.81321865 1.1694688 0 -0.006814417 -0.0062981383 0.99995697 0.0022325278
0.34688237 0.81320411 1.16994 0 -0.046411633 -0.011177294 0.99885988 0.031738974
0.35207433 0.81322616 1.1696409 0 0.30701521 -0.023111546 0.95142394 0.060870107
0.35494357 0.81319159 1.1682658 0 0.59216249 -0.011520939 0.80573618 0.060870107
0.43716812 0.81210721 1.1652658 0 -0.12506583 0.0074347123 0.99212056 0.00033808564
0.4425087 0.812424 1.1658432 0 -0.11035297 0.0054459055 0.99387753 0.00027419868
0.44786733 0.81273985 1.1663096 0 -0.11364125 4.7742964e-05 0.99352187 0.00011606215
0.45152265 0.81307364 1.1667027 0 -0.15004176 -0.00040663738 0.98867959 0.00093456649
0.45700741 0.81188816 1.1675514 0 -0.25433356 0.0063500651 0.96709573 0.0044624219
0.46285799 0.81309915 1.1693836 0 -0.4375163 0.0083764289 0.89917147 0.0043050614
0.34689045 0.81678146 1.16985 0 -0.12211006 -0.025869403 0.99217939 0.038129978
0.3521193 0.81681466 1.1697998 0 0.31160522 -0.10718406 0.94414711 0.06041475
0.35636276 0.81709623 1.1672913 0 0.59593487 -0.097111531 0.79713929 0.052440304
0.437179 0.81729013 1.1651796 0 -0.12736198 0.0064298674 0.99183547 0.00032007688
0.44251242 0.81760955 1.1658119 0 -0.11352307 0.0048448723 0.99352354 0.00027224014
0.44786429 0.81792736 1.1663336 0 -0.11512015 -0.00059501035 0.9933514 0.00020016826
0.45152006 0.81826341 1.1667176 0 -0.14957729 -0.0026644298 0.98874646 0.00090107368
0.45700639 0.81709361 1.1676073 0 -0.24816065 -0.0067982469 0.96869504 0.0033771789
0.46288693 0.81660265 1.1694107 0 -0.43401387 -0.0034060949 0.90089977 0.0055011171
0.43718362 0.82247454 1.1651415 0 -0.12637627 -6.5099521e-05 0.9919824 0.00040092791
0.44251567 0.82279527 1.1657853 0 -0.11747099 0.00086698239 0.99307591 0.00032848181
0.44786331 0.82311499 1.1663408 0 -0.11467034 -0.0008084164 0.99340326 0.00025393534
0.45151955 0.82172328 1.1667213 0 -0.15072739 -0.0026120809 0.98857194 0.0010211485
0.457026 0.82233047 1.1677135 0 -0.22253148 -0.0079643335 0.97489297 0.00096063456
0.43718147 0.82765949 1.1651577 0 -0.12181173 -0.0064862585 0.99253201 0.00039913694
0.44250828 0.82798135 1.1658478 0 -0.10993236 0.0023221318 0.99393636 0.00046275061
0.4478648 0.8283028 1.1663268 0 -0.11775815 0.010393622 0.99298793 0.00032070553
0.4515149 0.82691294 1.1667526 0 -0.13696037 -5.9054582e-06 0.99057651 0.00018555341
0.33784899 0.78887278 1.1744833 0 -0.025887836 0.41230991 0.91067576 0.0031542666
0.34310338 0.7889114 1.1745163 0 -0.0050302707 0.40814579 0.91290289 0.0029902514
0.34654155 0.78888172 1.1745344 0 -0.0010288651 0.4081997 0.9128921 0.0027963524
0.35177016 0.78890365 1.1745802 0 0.049202047 0.4239786 0.90433472 0.014412116
0.35710755 0.7890659 1.1748065 0 0.33492145 0.51057464 0.79192245 0.071154535
0.36128452 0.78812742 1.1735266 0 0.45773602 0.5613665 0.68945301 0.066365391
0.33732271 0.79292518 1.1728245 0 -0.045692991 0.343887 0.93789864 0.0020800855
0.34259808 0.79301184 1.1728927 0 -0.0073992591 0.33671513 0.94157749 0.0017093131
0.34779871 0.79299808 1.1729023 0 0.003758532 0.3368887 0.94153696 0.0015670412
0.3531304 0.79321629 1.1733081 0 0.20144464 0.3941977 0.89667618 0.052081365
0.35753387 0.79340667 1.1725999 0 0.45053294 0.42705801 0.78399074 0.06990923
0.36071554 0.79060805 1.1719692 0 0.55582368 0.51003474 0.65644848 0.074555732
0.33872142 0.79728949 1.171499 0 -0.02180242 0.26199493 0.96482295 0.0023501772
0.34222415 0.79733849 1.1715356 0 -0.0075908327 0.26090339 0.96533507 0.0025546907
0.34740049 0.797306 1.171591 0 0.0177557 0.27473167 0.961357 0.0025196697
0.35267267 0.79737937 1.171774 0 0.27174023 0.31429493 0.90960211 0.047638938
0.35740593 0.79698163 1.1709034 0 0.50267643 0.36196274 0.78504735 0.069488287
0.46331498 0.79826832 1.1704742 0 -0.53699559 0.1137815 0.83587646 0.003140107
0.33849919 0.80024689 1.1707633 0 -0.026971821 0.21322839 0.97663003 0.0035651831
0.34189579 0.80180669 1.1705098 0 -0.0096537154 0.18612796 0.98247808 0.0029881585
0.34709501 0.80179805 1.1705393 0 0.020835023 0.1910689 0.98135549 0.0044169365
0.35237244 0.80186737 1.170771 0 0.31099406 0.23989812 0.91963667 0.044040643
0.35655773 0.80104977 1.1700118 0 0.48974913 0.27535322 0.82724023 0.064278975
0.4677628 0.80686665 1.1728379 0 -0.68386227 0.067702271 0.72646326 0.0025429272
0.46759662 0.81178993 1.1724086 0 -0.66398305 0.016358873 0.74756867 0.0033292824
0.35249808 0.82248783 1.1707826 0 0.19751862 -0.19462128 0.96078557 0.06949684
0.35642597 0.82328236 1.1697884 0 0.49671811 -0.21845256 0.83996999 0.061207615
0.33707845 0.78243816 1.1779269 0 -0.027349686 0.52766579 0.84901166 0.0015811349
0.34233242 0.78245533 1.1779479 0 -0.0033977095 0.5222075 0.85281169 0.0012810621
0.3475461 0.78241569 1.1778939 0 0.0038660183 0.52052629 0.85383689 0.0010767445
0.3527872 0.78245127 1.17796 0 0.016702099 0.51806116 0.8551805 0.0015415271
0.35833505 0.78292418 1.178636 0 0.16306873 0.62152469 0.76623476 0.078512609
0.36275104 0.78296942 1.1778117 0 0.33669209 0.69825059 0.63173139 0.084326968
0.36715138 0.78140444 1.1772412 0 0.45787257 0.80796981 0.37086055 0.10401864
0.33292669 0.7861194 1.1755919 0 -0.063432835 0.47775269 0.87620127 0.0031139818
0.33820674 0.78623831 1.1757696 0 -0.021308852 0.45898727 0.88818729 0.0033232532
0.34342793 0.7862435 1.1757922 0 -0.0035459716 0.45477894 0.89059728 0.0022536917
0.3469153 0.78624159 1.1757867 0 -0.00070320343 0.45364562 0.89118189 0.0019473771
0.35215262 0.78630394 1.1758995 0 0.035853829 0.47722581 0.87804902 0.013546558
0.357519 0.78645653 1.1761227 0 0.28557023 0.56164622 0.77653277 0.071584679
0.36207378 0.78575879 1.1751062 0 0.43538171 0.62938631 0.64367354 0.078985803
0.34261096 0.77801079 1.1809253 0 -0.0031726814 0.59885734 0.80084944 0.00051639997
0.34743151 0.77721244 1.1814909 0 0.0047001848 0.61270267 0.79029953 0.00047524442
0.35201675 0.77759397 1.181182 0 0.006281008 0.60668331 0.79491884 0.00056023319
0.35726997 0.77754337 1.1810937 0 0.059419535 0.58290005 0.8103683 0.0013021026
