# .PCD v0.7 - Point Cloud Data file format
VERSION 0.7
FIELDS x y z rgb normal_x normal_y normal_z curvature
SIZE 4 4 4 4 4 4 4 4
TYPE F F F U F F F F
COUNT 1 1 1 1 1 1 1 1
WIDTH 583
HEIGHT 1
VIEWPOINT 0 0 0 1 0 0 0
POINTS 583
DATA ascii
-0.022613622 -0.051688276 1.0894014 0 1.3528223e-05 -2.0425938e-05 1 3.0278665e-11
-0.017767843 -0.051688276 1.0894012 0 1.3488453e-05 -1.9976427e-05 1 2.6723899e-11
-0.012922067 -0.051688273 1.0894012 0 1.166708e-05 -1.843955e-05 1 2.238692e-11
-0.0080762915 -0.051688269 1.0894011 0 1.184426e-05 -1.8132803e-05 1 2.2405473e-11
-0.0032305163 -0.051688265 1.0894011 0 1.3787017e-05 -1.7672128e-05 1 1.9719911e-11
0.0032305163 -0.051688258 1.089401 0 1.5769898e-05 -1.8586754e-05 1 2.6763267e-11
0.0080762897 -0.051688254 1.0894009 0 1.3528947e-05 -2.010448e-05 1 2.7332919e-11
0.012922063 -0.051688254 1.0894009 0 1.1533397e-05 -2.0711357e-05 1 3.0354084e-11
0.017767835 -0.051688254 1.0894008 0 1.07857e-05 -2.0296653e-05 1 2.2536115e-11
0.022613607 -0.051688246 1.0894008 0 1.1397369e-05 -1.9528343e-05 1 2.1447625e-11
0.027459381 -0.051688246 1.0894006 0 1.1221647e-05 -1.8397601e-05 1 2.1314743e-11
0.032305151 -0.051688243 1.0894006 0 1.3758297e-05 -1.7803224e-05 1 1.8117069e-11
0.037150923 -0.051688239 1.0894005 0 1.6421236e-05 -1.8514618e-05 1 1.7314965e-11
0.041996688 -0.051688232 1.0894004 0 1.715924e-05 -1.7874479e-05 1 1.3757207e-11
0.04684246 -0.051688232 1.0894004 0 1.4902919e-05 -1.7257989e-05 1 1.4797897e-11
0.051688232 -0.051688232 1.0894003 0 1.2804529e-05 -1.7727449e-05 1 1.0340228e-11
0.058149256 -0.051688224 1.0894003 0 1.2247217e-05 -1.7481199e-05 1 1.1371316e-11
0.062995017 -0.051688224 1.0894002 0 1.1053135e-05 -1.8060004e-05 1 1.1762844e-11
0.067840785 -0.05168822 1.0894002 0 1.1327813e-05 -1.9194831e-05 1 1.8288355e-11
0.072686553 -0.051688217 1.0894001 0 1.2853168e-05 -2.0291074e-05 1 2.1286509e-11
0.077532321 -0.051688213 1.0894001 0 1.3395974e-05 -1.8998737e-05 1 2.4733722e-11
0.082378097 -0.051688217 1.0893999 0 1.3716283e-05 -1.7587858e-05 1 2.995389e-11
0.087223858 -0.051688209 1.0893998 0 1.4855535e-05 -1.6980486e-05 1 3.1144507e-11
0.092069611 -0.051688205 1.0893998 0 1.4846721e-05 -1.6537644e-05 1 2.8361265e-11
0.096915379 -0.051688202 1.0893997 0 1.4637151e-05 -1.7930304e-05 1 2.5494724e-11
0.1033764 -0.051688198 1.0893997 0 1.1705307e-05 -2.0964331e-05 1 1.8400777e-11
0.10822216 -0.051688194 1.0893996 0 1.1838633e-05 -2.0399037e-05 1 1.9730858e-11
0.11306791 -0.051688194 1.0893996 0 1.2682131e-05 -1.8928917e-05 1 1.9490161e-11
0.11791368 -0.051688187 1.0893995 0 1.435514e-05 -1.8809882e-05 1 2.1845662e-11
0.12275944 -0.051688183 1.0893993 0 1.5842852e-05 -1.916417e-05 1 2.2516464e-11
0.1276052 -0.051688183 1.0893993 0 1.5638476e-05 -1.9091069e-05 1 2.0264611e-11
0.13245095 -0.051688179 1.0893992 0 1.4721806e-05 -2.0165589e-05 1 2.0660163e-11
0.13729671 -0.051688172 1.0893991 0 9.9962081e-06 -1.9506435e-05 1 2.4469657e-11
0.14214247 -0.051688172 1.0893991 0 2.5261641e-06 -1.6683813e-05 1 2.5072854e-11
-0.10822245 -0.046842553 1.0894026 0 1.0162807e-05 -2.3190274e-05 1 2.4406047e-11
-0.10337666 -0.046842553 1.0894026 0 1.2383324e-05 -2.2122074e-05 1 1.7918028e-11
-0.096915618 -0.046842549 1.0894024 0 1.3995315e-05 -2.0987525e-05 1 1.7472532e-11
-0.092069827 -0.046842542 1.0894023 0 1.3552949e-05 -2.129942e-05 1 1.787317e-11
-0.087224051 -0.046842542 1.0894023 0 1.4248294e-05 -2.1280144e-05 1 2.0550395e-11
-0.082378253 -0.046842538 1.0894022 0 1.2354742e-05 -2.0652016e-05 1 2.2912264e-11
-0.07753247 -0.046842538 1.0894022 0 1.1784013e-05 -2.0935791e-05 1 1.9054648e-11
-0.072686687 -0.046842534 1.0894021 0 1.1587477e-05 -2.0769932e-05 1 1.6776355e-11
-0.067840904 -0.046842534 1.0894021 0 1.3234684e-05 -1.9888139e-05 1 2.1782666e-11
-0.062995121 -0.046842527 1.089402 0 1.6136726e-05 -1.9422781e-05 1 2.0511731e-11
-0.058149341 -0.046842523 1.0894018 0 1.5397176e-05 -2.0385451e-05 1 2.2670376e-11
-0.051688299 -0.046842523 1.0894018 0 1.3791117e-05 -2.0625699e-05 1 2.5075239e-11
-0.046842519 -0.046842519 1.0894017 0 1.1149714e-05 -2.1392458e-05 1 2.7412371e-11
-0.04199674 -0.046842519 1.0894017 0 1.1382955e-05 -2.073143e-05 1 3.0570137e-11
-0.037150957 -0.046842512 1.0894016 0 1.2224168e-05 -2.1324502e-05 1 2.5987846e-11
-0.032305181 -0.046842508 1.0894016 0 1.4014748e-05 -1.9437102e-05 1 2.8320108e-11
-0.027459403 -0.046842512 1.0894015 0 1.4597968e-05 -2.0501764e-05 1 2.2295974e-11
-0.022613626 -0.046842508 1.0894015 0 1.3747032e-05 -2.1473541e-05 1 1.8350836e-11
-0.017767845 -0.046842501 1.0894014 0 1.3629156e-05 -2.1033502e-05 1 2.3589125e-11
-0.012922068 -0.046842497 1.0894012 0 1.3050239e-05 -1.9526471e-05 1 2.4047426e-11
-0.0080762925 -0.046842497 1.0894012 0 1.3153879e-05 -1.841351e-05 1 2.1201209e-11
-0.0032305168 -0.046842493 1.0894011 0 1.3913351e-05 -1.8268853e-05 1 2.2980919e-11
0.0032305163 -0.046842489 1.089401 0 1.4207349e-05 -1.894932e-05 1 2.8894054e-11
0.0080762906 -0.046842486 1.089401 0 1.2431667e-05 -1.9941481e-05 1 2.7950977e-11
0.012922064 -0.046842486 1.0894009 0 1.1994996e-05 -2.0316122e-05 1 2.5509938e-11
0.017767837 -0.046842482 1.0894009 0 1.0879965e-05 -2.0532436e-05 1 2.3911937e-11
0.022613611 -0.046842478 1.0894008 0 1.2694388e-05 -1.9165065e-05 1 1.9090536e-11
0.027459383 -0.046842478 1.0894008 0 1.2488659e-05 -1.8429573e-05 1 1.7121839e-11
0.032305159 -0.046842478 1.0894008 0 1.384714e-05 -1.8673374e-05 1 1.7770578e-11
0.037150927 -0.046842471 1.0894006 0 1.6085522e-05 -1.8617939e-05 1 1.7652565e-11
0.041996695 -0.046842471 1.0894005 0 1.6332489e-05 -1.894358e-05 1 1.5837678e-11
0.046842467 -0.046842467 1.0894004 0 1.5523437e-05 -1.9805726e-05 1 1.4894447e-11
0.051688232 -0.04684246 1.0894004 0 1.3470997e-05 -1.928412e-05 1 1.2313513e-11
0.058149256 -0.046842456 1.0894003 0 1.1972484e-05 -1.7152915e-05 1 1.2935269e-11
0.062995024 -0.046842456 1.0894003 0 1.1633313e-05 -1.7720578e-05 1 1.3720646e-11
0.0678408 -0.046842456 1.0894003 0 1.0691891e-05 -1.8833663e-05 1 1.732426e-11
0.07268656 -0.046842452 1.0894002 0 1.1893265e-05 -1.8463907e-05 1 2.2164125e-11
0.077532321 -0.046842448 1.0894002 0 1.5259229e-05 -1.8396038e-05 1 2.244826e-11
0.082378097 -0.046842445 1.0894001 0 1.5398549e-05 -1.8913519e-05 1 2.1135442e-11
0.087223858 -0.046842441 1.0893999 0 1.5051257e-05 -1.9306344e-05 1 2.2635414e-11
0.092069611 -0.046842434 1.0893999 0 1.2418505e-05 -2.0151341e-05 1 2.6944358e-11
0.096915394 -0.046842437 1.0893998 0 1.2007314e-05 -2.1934493e-05 1 1.6976184e-11
0.10337641 -0.046842434 1.0893998 0 1.0868799e-05 -2.2334845e-05 1 1.6163484e-11
0.10822216 -0.04684243 1.0893997 0 1.2561595e-05 -2.1068709e-05 1 2.2528774e-11
0.11306792 -0.046842426 1.0893996 0 1.4506441e-05 -2.0134048e-05 1 2.2307229e-11
0.11791369 -0.046842426 1.0893996 0 1.4731285e-05 -1.9310533e-05 1 1.9704667e-11
0.12275945 -0.046842422 1.0893995 0 1.425152e-05 -2.007524e-05 1 2.0353212e-11
0.12760521 -0.046842419 1.0893995 0 1.349729e-05 -2.0792584e-05 1 2.1891633e-11
0.13245097 -0.046842415 1.0893993 0 1.5392223e-05 -2.2123826e-05 1 2.3272493e-11
0.13729674 -0.046842415 1.0893992 0 1.1460508e-05 -2.2012919e-05 1 3.0543842e-11
0.14214249 -0.046842411 1.0893992 0 2.9184746e-06 -1.9961315e-05 1 3.1271905e-11
-0.11306824 -0.041996777 1.0894027 0 -6.1135484e-06 -2.9566641e-05 1 3.1417469e-11
-0.10822246 -0.041996777 1.0894027 0 7.6619435e-06 -2.4400093e-05 1 2.2777216e-11
-0.10337668 -0.041996777 1.0894027 0 1.2670259e-05 -2.2627393e-05 1 1.5306629e-11
-0.096915625 -0.04199677 1.0894026 0 1.3924468e-05 -2.1194925e-05 1 1.1870172e-11
-0.092069834 -0.04199677 1.0894024 0 1.4346456e-05 -2.0187168e-05 1 1.6221814e-11
-0.087224051 -0.041996766 1.0894024 0 1.4169715e-05 -2.0268533e-05 1 1.9327123e-11
-0.082378268 -0.041996762 1.0894023 0 1.21744e-05 -1.9813662e-05 1 2.1266556e-11
-0.077532478 -0.041996762 1.0894023 0 1.1896648e-05 -1.9296038e-05 1 1.812623e-11
-0.072686695 -0.041996758 1.0894022 0 1.2633638e-05 -1.8680745e-05 1 2.187288e-11
-0.067840911 -0.041996755 1.0894022 0 1.4022358e-05 -1.9331574e-05 1 2.3694586e-11
-0.062995128 -0.041996755 1.0894021 0 1.5413654e-05 -1.8705834e-05 1 2.1065833e-11
-0.058149345 -0.041996747 1.089402 0 1.453819e-05 -2.0336814e-05 1 2.3291199e-11
-0.051688302 -0.041996747 1.089402 0 1.2703879e-05 -2.1561178e-05 1 2.455345e-11
-0.046842523 -0.041996747 1.0894018 0 1.0961642e-05 -2.2230241e-05 1 2.1231015e-11
-0.04199674 -0.041996747 1.0894018 0 1.2758013e-05 -2.0745198e-05 1 3.1197118e-11
-0.037150957 -0.04199674 1.0894017 0 1.3874469e-05 -1.9171364e-05 1 3.0764915e-11
-0.032305185 -0.04199674 1.0894016 0 1.4750965e-05 -1.8950237e-05 1 2.8503415e-11
-0.027459403 -0.041996736 1.0894016 0 1.2951376e-05 -2.0029451e-05 1 2.87759e-11
-0.022613626 -0.041996732 1.0894016 0 1.3552289e-05 -2.0302896e-05 1 2.6624708e-11
-0.017767847 -0.041996732 1.0894015 0 1.4359626e-05 -2.000213e-05 1 2.4325845e-11
-0.01292207 -0.041996732 1.0894014 0 1.353775e-05 -2.0056312e-05 1 2.0498676e-11
-0.0080762934 -0.041996725 1.0894014 0 1.393803e-05 -1.9715393e-05 1 2.2089495e-11
-0.003230517 -0.041996721 1.0894012 0 1.4562544e-05 -1.8244315e-05 1 2.0200017e-11
0.0032305168 -0.041996717 1.0894011 0 1.2830202e-05 -2.0309208e-05 1 2.842445e-11
0.0080762915 -0.041996714 1.0894011 0 1.1943456e-05 -2.1614242e-05 1 2.359354e-11
0.012922065 -0.041996714 1.0894011 0 1.1909441e-05 -2.1633299e-05 1 2.7771022e-11
0.017767839 -0.04199671 1.089401 0 1.2334572e-05 -2.2390645e-05 1 2.5186271e-11
0.022613611 -0.041996706 1.0894009 0 1.2212128e-05 -2.1032554e-05 1 2.2111334e-11
0.027459385 -0.04199671 1.0894009 0 1.3136308e-05 -1.9592648e-05 1 1.4900386e-11
0.032305159 -0.041996706 1.0894008 0 1.5086039e-05 -1.9324565e-05 1 1.7704909e-11
0.037150927 -0.041996703 1.0894008 0 1.6543876e-05 -1.884986e-05 1 1.4190992e-11
0.041996695 -0.041996699 1.0894006 0 1.5246655e-05 -2.0083844e-05 1 1.4664714e-11
0.046842471 -0.041996695 1.0894005 0 1.451332e-05 -1.9870156e-05 1 1.4700911e-11
0.051688239 -0.041996695 1.0894005 0 1.4468351e-05 -1.8977087e-05 1 1.3498806e-11
0.058149263 -0.041996691 1.0894004 0 1.2469245e-05 -1.8384704e-05 1 1.6630889e-11
0.062995031 -0.041996688 1.0894003 0 1.0570337e-05 -1.8270237e-05 1 1.8035606e-11
0.0678408 -0.041996688 1.0894003 0 1.0206464e-05 -1.6933251e-05 1 2.1187581e-11
0.072686568 -0.041996684 1.0894003 0 1.2052986e-05 -1.6733564e-05 1 2.0580452e-11
0.077532336 -0.04199668 1.0894002 0 1.3661504e-05 -1.7255355e-05 1 2.480979e-11
0.082378104 -0.04199668 1.0894002 0 1.3937533e-05 -1.8846737e-05 1 2.7444776e-11
0.087223858 -0.041996676 1.0894001 0 1.3392189e-05 -1.9930363e-05 1 3.0750628e-11
0.092069626 -0.041996673 1.0893999 0 1.2240559e-05 -2.1587482e-05 1 2.7518701e-11
0.096915394 -0.041996673 1.0893999 0 1.1200696e-05 -2.3030789e-05 1 1.6165763e-11
0.10337641 -0.041996665 1.0893999 0 1.3020609e-05 -2.1499662e-05 1 2.1684357e-11
0.10822217 -0.041996665 1.0893998 0 1.4890951e-05 -2.0015847e-05 1 1.761772e-11
0.11306793 -0.041996662 1.0893997 0 1.5253604e-05 -1.9941433e-05 1 2.1508944e-11
0.11791369 -0.041996658 1.0893997 0 1.357211e-05 -1.9198764e-05 1 1.6470967e-11
0.12275946 -0.041996658 1.0893996 0 1.3971758e-05 -1.9473518e-05 1 1.8083739e-11
0.12760523 -0.041996654 1.0893996 0 1.3433151e-05 -2.0966281e-05 1 2.1338261e-11
0.13245098 -0.041996654 1.0893995 0 1.3581731e-05 -2.2291808e-05 1 2.1570698e-11
0.13729674 -0.04199665 1.0893993 0 1.2433278e-05 -2.268716e-05 1 2.2782816e-11
0.1421425 -0.041996647 1.0893993 0 9.269057e-06 -2.0935082e-05 1 3.1426993e-11
0.14698827 -0.041996647 1.0893993 0 5.8999431e-06 -1.7509275e-05 1 4.0724573e-11
-0.11306827 -0.037151001 1.0894028 0 5.4500124e-06 -2.5119683e-05 1 3.5788789e-11
-0.10822248 -0.037150998 1.0894028 0 1.0935272e-05 -2.1546613e-05 1 3.0030534e-11
-0.10337669 -0.037150994 1.0894027 0 1.3055625e-05 -2.0651687e-05 1 1.3931976e-11
-0.096915632 -0.037150994 1.0894027 0 1.3593109e-05 -2.0133311e-05 1 1.0704105e-11
-0.092069849 -0.03715099 1.0894026 0 1.422381e-05 -1.9653051e-05 1 1.651077e-11
-0.087224059 -0.037150986 1.0894024 0 1.4502514e-05 -1.855254e-05 1 1.5949539e-11
-0.082378276 -0.037150986 1.0894024 0 1.3627609e-05 -1.8739187e-05 1 1.4755646e-11
-0.077532485 -0.037150986 1.0894023 0 1.1748241e-05 -1.9549785e-05 1 1.649544e-11
-0.072686702 -0.037150983 1.0894023 0 1.2361046e-05 -1.7954349e-05 1 1.3356556e-11
-0.067840919 -0.037150979 1.0894022 0 1.4102042e-05 -1.8148883e-05 1 1.3106753e-11
-0.062995136 -0.037150979 1.0894022 0 1.5217051e-05 -1.8630555e-05 1 1.6518736e-11
-0.058149353 -0.037150975 1.0894021 0 1.3282817e-05 -2.0813415e-05 1 2.022177e-11
-0.051688313 -0.037150975 1.089402 0 1.1937333e-05 -2.0974931e-05 1 1.8385153e-11
-0.046842527 -0.037150972 1.089402 0 1.2916138e-05 -2.1223421e-05 1 2.0640054e-11
-0.041996747 -0.037150972 1.089402 0 1.3937879e-05 -2.0740043e-05 1 2.7925273e-11
-0.037150968 -0.037150968 1.0894018 0 1.5138877e-05 -1.9597654e-05 1 2.9619637e-11
-0.032305185 -0.03715096 1.0894017 0 1.2941213e-05 -1.9229959e-05 1 2.3628511e-11
-0.027459407 -0.03715096 1.0894017 0 1.2694381e-05 -1.9201883e-05 1 2.3892504e-11
-0.022613626 -0.037150957 1.0894016 0 1.2555595e-05 -2.0730437e-05 1 2.4709387e-11
-0.01776785 -0.037150957 1.0894016 0 1.4101652e-05 -2.1105483e-05 1 1.9440262e-11
-0.012922071 -0.037150953 1.0894015 0 1.4867428e-05 -2.1814987e-05 1 1.6634768e-11
-0.0080762943 -0.037150953 1.0894014 0 1.4485052e-05 -2.1199357e-05 1 2.0705871e-11
-0.0032305173 -0.037150949 1.0894014 0 1.4787468e-05 -2.1848289e-05 1 2.0031463e-11
0.0032305173 -0.037150949 1.0894012 0 1.2419681e-05 -1.9819345e-05 1 2.788832e-11
0.0080762925 -0.037150946 1.0894012 0 1.0665155e-05 -1.9589714e-05 1 2.2525166e-11
0.012922067 -0.037150942 1.0894011 0 1.1143658e-05 -2.0186866e-05 1 2.9514686e-11
0.017767841 -0.037150942 1.0894011 0 1.1850547e-05 -1.9657875e-05 1 2.7518852e-11
0.022613615 -0.037150938 1.089401 0 1.381718e-05 -2.0023303e-05 1 1.9365834e-11
0.027459389 -0.037150938 1.089401 0 1.4092046e-05 -2.0307783e-05 1 1.4665441e-11
0.032305159 -0.037150934 1.0894009 0 1.445748e-05 -2.0336411e-05 1 1.5044542e-11
0.037150934 -0.037150934 1.0894009 0 1.5766915e-05 -1.9753988e-05 1 1.2526204e-11
0.041996703 -0.037150931 1.0894008 0 1.5114789e-05 -1.9842802e-05 1 1.439517e-11
0.046842471 -0.037150927 1.0894006 0 1.4975134e-05 -2.012504e-05 1 1.4026206e-11
0.051688246 -0.037150927 1.0894006 0 1.5290299e-05 -2.1377466e-05 1 1.614967e-11
0.058149271 -0.037150923 1.0894005 0 1.3063946e-05 -1.9765503e-05 1 1.8789165e-11
0.062995031 -0.037150916 1.0894004 0 1.1830155e-05 -1.9138843e-05 1 1.5845802e-11
0.067840807 -0.037150916 1.0894004 0 1.0771951e-05 -1.7244907e-05 1 2.1102316e-11
0.072686575 -0.037150916 1.0894004 0 1.270403e-05 -1.7587256e-05 1 1.8014187e-11
0.077532336 -0.037150912 1.0894003 0 1.4055555e-05 -1.6945831e-05 1 1.6588052e-11
0.082378104 -0.037150908 1.0894002 0 1.297949e-05 -1.8396326e-05 1 2.5478928e-11
0.087223873 -0.037150908 1.0894002 0 1.1053347e-05 -2.0701864e-05 1 2.4984501e-11
0.092069633 -0.037150905 1.0894002 0 1.0296319e-05 -2.1035172e-05 1 1.9416167e-11
0.096915394 -0.037150905 1.0894001 0 1.1574029e-05 -2.1560703e-05 1 1.8205278e-11
0.10337643 -0.037150905 1.0893999 0 1.3745534e-05 -2.0968009e-05 1 1.9526901e-11
0.10822219 -0.037150901 1.0893999 0 1.5527119e-05 -2.1078018e-05 1 1.7332226e-11
0.11306795 -0.037150897 1.0893998 0 1.5854286e-05 -1.8454803e-05 1 1.8654836e-11
0.1179137 -0.037150893 1.0893997 0 1.4546318e-05 -1.875216e-05 1 1.7565234e-11
0.12275947 -0.037150893 1.0893997 0 1.2555639e-05 -2.0238031e-05 1 2.0090306e-11
0.12760523 -0.03715089 1.0893996 0 1.2201946e-05 -2.0296489e-05 1 2.3319508e-11
0.132451 -0.03715089 1.0893996 0 1.2928384e-05 -1.9865334e-05 1 2.0252846e-11
0.13729677 -0.03715089 1.0893995 0 1.2525381e-05 -2.1085672e-05 1 2.1537102e-11
0.1421425 -0.037150882 1.0893995 0 1.1126637e-05 -1.9851008e-05 1 2.4663629e-11
0.14698829 -0.037150886 1.0893993 0 8.5280763e-06 -1.7586839e-05 1 3.4989709e-11
-0.11791405 -0.032305218 1.0894029 0 -1.6476813e-06 -3.058312e-05 1 4.3139929e-11
-0.11306827 -0.032305218 1.0894029 0 1.2279122e-05 -1.8402839e-05 1 3.683653e-11
-0.10822248 -0.032305218 1.0894029 0 1.203318e-05 -1.7750388e-05 1 2.3707638e-11
-0.10337669 -0.032305218 1.0894028 0 1.1720264e-05 -1.7725293e-05 1 2.0496558e-11
-0.096915647 -0.032305215 1.0894027 0 1.4631652e-05 -1.7183933e-05 1 1.692109e-11
-0.092069857 -0.032305215 1.0894027 0 1.5876876e-05 -1.8317101e-05 1 1.1113001e-11
-0.087224066 -0.032305211 1.0894026 0 1.4356394e-05 -1.8446222e-05 1 1.7878353e-11
-0.082378283 -0.032305207 1.0894026 0 1.2555573e-05 -1.8542923e-05 1 1.4484842e-11
-0.0775325 -0.032305207 1.0894024 0 1.2485224e-05 -1.7312324e-05 1 1.522501e-11
-0.072686702 -0.032305203 1.0894024 0 1.285239e-05 -1.7341543e-05 1 1.488195e-11
-0.067840926 -0.032305203 1.0894023 0 1.3521711e-05 -1.8888137e-05 1 1.7947263e-11
-0.062995136 -0.0323052 1.0894022 0 1.3240652e-05 -1.9239847e-05 1 1.3034433e-11
-0.058149356 -0.0323052 1.0894022 0 1.221643e-05 -1.8730441e-05 1 1.6485435e-11
-0.051688313 -0.032305196 1.0894021 0 1.1779083e-05 -2.0984748e-05 1 1.8081661e-11
-0.046842534 -0.032305196 1.0894021 0 1.3602303e-05 -2.0427116e-05 1 2.3593643e-11
-0.041996751 -0.032305192 1.089402 0 1.4425473e-05 -1.923168e-05 1 2.8279231e-11
-0.037150972 -0.032305188 1.089402 0 1.4547993e-05 -2.0059779e-05 1 2.3824817e-11
-0.032305188 -0.032305185 1.0894018 0 1.3572062e-05 -2.1941431e-05 1 2.1299759e-11
-0.027459409 -0.032305188 1.0894017 0 1.2681506e-05 -1.9904084e-05 1 2.1744237e-11
-0.02261363 -0.032305185 1.0894017 0 1.2731485e-05 -2.0248162e-05 1 1.9347799e-11
-0.017767852 -0.032305185 1.0894017 0 1.2092927e-05 -2.1703683e-05 1 1.9070261e-11
-0.012922072 -0.032305181 1.0894016 0 1.3547345e-05 -2.2039871e-05 1 1.79292e-11
-0.0080762943 -0.032305177 1.0894015 0 1.4080747e-05 -2.1696695e-05 1 1.5332e-11
-0.0032305177 -0.032305177 1.0894015 0 1.5303296e-05 -2.2062233e-05 1 1.7743362e-11
0.0032305175 -0.032305174 1.0894014 0 1.3875967e-05 -2.0417743e-05 1 3.1054388e-11
0.0080762934 -0.032305174 1.0894012 0 1.2498062e-05 -1.8015427e-05 1 2.9704777e-11
0.012922069 -0.03230517 1.0894012 0 1.2032561e-05 -1.663997e-05 1 2.9870079e-11
0.017767843 -0.03230517 1.0894012 0 1.121755e-05 -1.7086866e-05 1 2.5503721e-11
0.022613615 -0.032305166 1.0894011 0 1.2448747e-05 -1.7944771e-05 1 2.7132989e-11
0.027459392 -0.032305166 1.0894011 0 1.3807566e-05 -1.9312072e-05 1 2.0595716e-11
0.032305162 -0.032305162 1.089401 0 1.4607014e-05 -1.9105801e-05 1 1.5109988e-11
0.037150934 -0.032305159 1.0894009 0 1.5610618e-05 -2.0492706e-05 1 1.2598441e-11
0.04199671 -0.032305159 1.0894009 0 1.4472141e-05 -2.1143751e-05 1 1.622188e-11
0.046842478 -0.032305159 1.0894008 0 1.3947553e-05 -2.139038e-05 1 1.8151479e-11
0.051688246 -0.032305155 1.0894008 0 1.4035252e-05 -2.2500108e-05 1 1.5152306e-11
0.058149271 -0.032305151 1.0894006 0 1.4987197e-05 -2.2186567e-05 1 1.4320554e-11
0.062995046 -0.032305151 1.0894005 0 1.4118687e-05 -2.1036654e-05 1 1.9823983e-11
0.067840815 -0.032305151 1.0894005 0 1.2173667e-05 -1.8552604e-05 1 2.3474868e-11
0.072686575 -0.032305144 1.0894004 0 1.1711773e-05 -1.8767882e-05 1 1.972917e-11
0.077532351 -0.032305144 1.0894004 0 1.245838e-05 -1.8848243e-05 1 2.362859e-11
0.082378112 -0.032305144 1.0894003 0 1.2592733e-05 -1.8102222e-05 1 2.1960997e-11
0.087223873 -0.03230514 1.0894003 0 1.0123847e-05 -1.8504759e-05 1 2.086949e-11
0.092069656 -0.03230514 1.0894002 0 9.5404848e-06 -2.0215615e-05 1 1.959469e-11
0.096915416 -0.032305136 1.0894002 0 1.1224998e-05 -1.920986e-05 1 2.0220346e-11
0.10337643 -0.032305136 1.0894001 0 1.3482355e-05 -1.9543328e-05 1 2.4220129e-11
0.10822219 -0.032305133 1.0894001 0 1.5484138e-05 -2.0440852e-05 1 1.9155028e-11
0.11306795 -0.032305133 1.0893999 0 1.6119593e-05 -2.0651318e-05 1 2.253444e-11
0.11791372 -0.032305129 1.0893998 0 1.3659779e-05 -2.043488e-05 1 2.8042469e-11
0.12275948 -0.032305129 1.0893998 0 1.2083343e-05 -2.0621548e-05 1 2.3466163e-11
0.12760524 -0.032305125 1.0893997 0 1.1344626e-05 -2.2039942e-05 1 1.7860814e-11
0.13245101 -0.032305121 1.0893997 0 1.3953297e-05 -2.1360825e-05 1 2.0683823e-11
0.13729677 -0.032305121 1.0893996 0 1.3985223e-05 -1.9783845e-05 1 2.4513339e-11
0.14214253 -0.032305121 1.0893996 0 1.2417971e-05 -1.9704412e-05 1 2.1686554e-11
0.14698829 -0.032305118 1.0893995 0 1.0299291e-05 -1.8539673e-05 1 3.2840983e-11
0.15183404 -0.032305114 1.0893995 0 1.8843171e-05 -1.8558047e-05 1 3.3695789e-11
-0.11791408 -0.027459443 1.089403 0 1.9182784e-05 -1.864389e-05 1 4.1564807e-11
-0.11306828 -0.027459439 1.089403 0 1.488455e-05 -1.7347575e-05 1 3.0686099e-11
-0.10822248 -0.027459437 1.0894029 0 1.3326065e-05 -1.6095808e-05 1 2.0885009e-11
-0.1033767 -0.027459435 1.0894029 0 1.2946289e-05 -1.5957099e-05 1 1.6318717e-11
-0.096915647 -0.027459433 1.0894028 0 1.3784393e-05 -1.7306376e-05 1 1.7746552e-11
-0.092069864 -0.027459433 1.0894028 0 1.4874705e-05 -1.8115215e-05 1 1.570595e-11
-0.087224074 -0.027459431 1.0894027 0 1.4013852e-05 -1.8662106e-05 1 2.0206403e-11
-0.082378283 -0.027459428 1.0894026 0 1.323469e-05 -1.8161743e-05 1 1.7490571e-11
-0.0775325 -0.027459428 1.0894026 0 1.294962e-05 -1.9026918e-05 1 2.4564828e-11
-0.072686709 -0.027459424 1.0894024 0 1.2852385e-05 -1.8050448e-05 1 1.7542471e-11
-0.067840934 -0.027459424 1.0894024 0 1.2784467e-05 -1.7647371e-05 1 1.7996696e-11
-0.062995143 -0.027459422 1.0894023 0 1.1958254e-05 -1.9359868e-05 1 1.5393306e-11
-0.058149364 -0.027459422 1.0894023 0 1.1639871e-05 -2.0805386e-05 1 1.378117e-11
-0.051688317 -0.027459418 1.0894022 0 1.3029147e-05 -1.8886785e-05 1 1.4599074e-11
-0.046842538 -0.027459418 1.0894022 0 1.3083207e-05 -1.7854149e-05 1 1.3779593e-11
-0.041996755 -0.027459417 1.0894021 0 1.3657934e-05 -1.9657246e-05 1 2.4577954e-11
-0.037150972 -0.027459413 1.089402 0 1.3659734e-05 -2.0259891e-05 1 2.0575338e-11
-0.032305188 -0.027459411 1.089402 0 1.4179698e-05 -2.0232406e-05 1 2.2355786e-11
-0.027459413 -0.027459413 1.0894018 0 1.2959256e-05 -2.1067233e-05 1 1.8673023e-11
-0.022613632 -0.027459409 1.0894018 0 1.1346316e-05 -2.0553403e-05 1 1.8806194e-11
-0.017767852 -0.027459407 1.0894017 0 1.3098047e-05 -1.8700974e-05 1 1.7018954e-11
-0.012922073 -0.027459405 1.0894017 0 1.3804075e-05 -1.9559424e-05 1 1.6731902e-11
-0.0080762962 -0.027459407 1.0894016 0 1.3908402e-05 -2.1030326e-05 1 1.5832041e-11
-0.003230518 -0.027459402 1.0894016 0 1.4549581e-05 -2.0857597e-05 1 1.401282e-11
0.0032305177 -0.027459402 1.0894015 0 1.4931368e-05 -1.9135137e-05 1 2.28305e-11
0.0080762934 -0.027459398 1.0894014 0 1.3411684e-05 -1.9538931e-05 1 3.0054688e-11
0.012922069 -0.027459396 1.0894014 0 1.3502264e-05 -1.6887339e-05 1 2.4422837e-11
0.017767845 -0.027459398 1.0894012 0 1.1283867e-05 -1.5773034e-05 1 1.9900661e-11
0.022613619 -0.027459394 1.0894012 0 1.1247901e-05 -1.6848509e-05 1 2.1590845e-11
0.027459392 -0.027459392 1.0894011 0 1.1846696e-05 -1.8139301e-05 1 1.9954817e-11
0.032305166 -0.027459392 1.0894011 0 1.4457474e-05 -1.9155777e-05 1 1.49904e-11
0.037150938 -0.027459389 1.089401 0 1.5599864e-05 -1.9500449e-05 1 1.3119654e-11
0.04199671 -0.027459387 1.0894009 0 1.3444412e-05 -2.091886e-05 1 1.4906239e-11
0.046842482 -0.027459385 1.0894009 0 1.3647334e-05 -2.2191269e-05 1 1.8440853e-11
0.051688254 -0.027459383 1.0894009 0 1.3730646e-05 -2.197225e-05 1 1.5435337e-11
0.058149278 -0.027459383 1.0894008 0 1.5310165e-05 -2.1658709e-05 1 1.3696923e-11
0.062995046 -0.027459379 1.0894006 0 1.4457168e-05 -2.1837544e-05 1 1.8971874e-11
0.067840815 -0.027459379 1.0894005 0 1.3103301e-05 -2.1300051e-05 1 1.9257611e-11
0.072686583 -0.027459377 1.0894005 0 1.3246485e-05 -2.0749709e-05 1 1.8192472e-11
0.077532351 -0.027459374 1.0894004 0 1.2704027e-05 -2.0209967e-05 1 1.9332043e-11
0.082378119 -0.027459374 1.0894004 0 1.1944547e-05 -2.1045931e-05 1 2.4386722e-11
0.087223887 -0.027459372 1.0894003 0 1.1012876e-05 -2.0195917e-05 1 2.1006698e-11
0.092069656 -0.02745937 1.0894003 0 9.9571198e-06 -1.8442855e-05 1 1.6630352e-11
0.096915424 -0.027459368 1.0894003 0 1.066001e-05 -1.9064229e-05 1 1.9251527e-11
0.10337644 -0.027459368 1.0894002 0 1.3736238e-05 -1.9572046e-05 1 2.2644723e-11
0.1082222 -0.027459364 1.0894001 0 1.6796837e-05 -1.9009372e-05 1 1.7687112e-11
0.11306797 -0.027459364 1.0894001 0 1.6648481e-05 -1.9253115e-05 1 2.0896682e-11
0.11791373 -0.027459363 1.0893999 0 1.2951413e-05 -2.1754864e-05 1 2.5226331e-11
0.12275949 -0.027459361 1.0893999 0 1.134462e-05 -2.0663634e-05 1 1.7781896e-11
0.12760526 -0.027459359 1.0893998 0 1.2447045e-05 -1.9680403e-05 1 2.3078001e-11
0.13245103 -0.027459357 1.0893998 0 1.4250105e-05 -2.0237487e-05 1 2.1164497e-11
0.13729678 -0.027459355 1.0893997 0 1.2736146e-05 -2.071032e-05 1 2.5630279e-11
0.14214253 -0.027459353 1.0893996 0 1.2902035e-05 -1.9395768e-05 1 2.0002226e-11
0.1469883 -0.027459353 1.0893996 0 1.1510249e-05 -1.92303e-05 1 2.8016752e-11
0.15183407 -0.027459351 1.0893995 0 1.8338491e-05 -2.1179334e-05 1 3.2241296e-11
-0.11791408 -0.02261366 1.0894032 0 1.8064207e-05 -1.8014407e-05 1 3.3474837e-11
-0.11306828 -0.022613658 1.089403 0 1.47808e-05 -1.7210825e-05 1 2.5340952e-11
-0.10822249 -0.022613656 1.089403 0 1.3625759e-05 -1.7101047e-05 1 1.8410157e-11
-0.10337671 -0.022613656 1.0894029 0 1.2323451e-05 -1.6847247e-05 1 1.5655031e-11
-0.096915655 -0.022613652 1.0894029 0 1.2586626e-05 -1.68552e-05 1 2.1353391e-11
-0.092069864 -0.022613652 1.0894028 0 1.3454922e-05 -1.9086121e-05 1 1.9372339e-11
-0.087224081 -0.02261365 1.0894028 0 1.239052e-05 -2.0238511e-05 1 2.1042305e-11
-0.082378298 -0.02261365 1.0894027 0 1.4061652e-05 -1.987484e-05 1 2.5684101e-11
-0.077532515 -0.022613648 1.0894026 0 1.3039026e-05 -2.0442665e-05 1 2.3919471e-11
-0.072686717 -0.022613646 1.0894026 0 1.1966994e-05 -2.0934549e-05 1 1.9756127e-11
-0.067840934 -0.022613645 1.0894024 0 1.1780932e-05 -2.0740021e-05 1 2.0731483e-11
-0.062995151 -0.022613645 1.0894024 0 1.1920431e-05 -2.0061654e-05 1 2.0162455e-11
-0.058149368 -0.022613643 1.0894024 0 1.2401866e-05 -2.0927011e-05 1 1.3485997e-11
-0.051688321 -0.022613641 1.0894023 0 1.332082e-05 -1.8992921e-05 1 1.6672691e-11
-0.046842538 -0.022613641 1.0894022 0 1.3595281e-05 -1.9089854e-05 1 1.549668e-11
-0.041996755 -0.022613639 1.0894022 0 1.3099198e-05 -1.8739202e-05 1 2.0745388e-11
-0.037150979 -0.022613637 1.0894021 0 1.2742231e-05 -2.0149722e-05 1 2.0543768e-11
-0.032305196 -0.022613637 1.0894021 0 1.2764721e-05 -2.0455562e-05 1 1.9665915e-11
-0.027459415 -0.022613635 1.089402 0 1.3935185e-05 -2.0059782e-05 1 2.2418935e-11
-0.022613633 -0.022613633 1.089402 0 1.3867138e-05 -1.913326e-05 1 2.0958972e-11
-0.017767854 -0.022613632 1.0894018 0 1.2300326e-05 -1.8484488e-05 1 1.7039307e-11
-0.012922075 -0.022613632 1.0894018 0 1.2649832e-05 -1.8542951e-05 1 1.6209331e-11
-0.0080762962 -0.02261363 1.0894017 0 1.319217e-05 -1.9237357e-05 1 1.7753833e-11
-0.0032305182 -0.022613628 1.0894017 0 1.4375171e-05 -2.0439367e-05 1 1.3259783e-11
0.0032305182 -0.022613626 1.0894016 0 1.7188959e-05 -2.1127082e-05 1 1.420978e-11
0.0080762943 -0.022613626 1.0894015 0 1.5537502e-05 -1.9200026e-05 1 2.3281328e-11
0.01292207 -0.022613624 1.0894014 0 1.4589297e-05 -1.8358043e-05 1 2.4824877e-11
0.017767843 -0.02261362 1.0894014 0 1.1157953e-05 -1.784308e-05 1 2.2707747e-11
0.02261362 -0.02261362 1.0894012 0 1.0132459e-05 -1.7735627e-05 1 1.8284967e-11
0.027459394 -0.022613619 1.0894012 0 1.2189043e-05 -1.7215665e-05 1 1.9871365e-11
0.03230517 -0.022613617 1.0894012 0 1.2900276e-05 -1.9281691e-05 1 1.8411328e-11
0.037150942 -0.022613617 1.0894011 0 1.3109409e-05 -1.9607302e-05 1 1.8104464e-11
0.041996714 -0.022613615 1.089401 0 1.2576577e-05 -2.079853e-05 1 1.5383139e-11
0.046842486 -0.022613615 1.089401 0 1.3085642e-05 -2.1449194e-05 1 1.953137e-11
0.051688254 -0.022613613 1.0894009 0 1.3563797e-05 -2.1902169e-05 1 1.561074e-11
0.058149286 -0.022613611 1.0894009 0 1.5495229e-05 -2.17572e-05 1 1.3352397e-11
0.062995054 -0.022613609 1.0894008 0 1.5015804e-05 -2.2098009e-05 1 1.5981874e-11
0.067840829 -0.022613607 1.0894006 0 1.3757844e-05 -2.2099499e-05 1 1.7667588e-11
0.07268659 -0.022613607 1.0894006 0 1.3539987e-05 -2.126354e-05 1 1.7759192e-11
0.077532358 -0.022613605 1.0894005 0 1.3098077e-05 -2.1620488e-05 1 1.6497756e-11
0.082378127 -0.022613604 1.0894005 0 1.2754591e-05 -2.1678357e-05 1 2.278012e-11
0.087223895 -0.022613604 1.0894004 0 1.1948909e-05 -1.9894516e-05 1 2.2216989e-11
0.092069656 -0.0226136 1.0894004 0 1.0836711e-05 -1.8638804e-05 1 1.5432242e-11
0.096915424 -0.0226136 1.0894003 0 1.1371409e-05 -1.862462e-05 1 2.0867634e-11
0.10337645 -0.022613598 1.0894003 0 1.3652578e-05 -1.7849783e-05 1 2.0675526e-11
0.10822222 -0.022613598 1.0894002 0 1.4912015e-05 -1.8575614e-05 1 2.0065954e-11
0.11306797 -0.022613594 1.0894001 0 1.4729359e-05 -1.8956298e-05 1 3.0631754e-11
0.11791375 -0.022613594 1.0894001 0 1.3037352e-05 -2.0640551e-05 1 2.7852904e-11
0.12275951 -0.022613592 1.0893999 0 1.2336875e-05 -1.9559484e-05 1 2.3278893e-11
0.12760529 -0.022613592 1.0893999 0 1.236111e-05 -1.9932779e-05 1 2.2340147e-11
0.13245103 -0.022613591 1.0893998 0 1.3957726e-05 -1.8956305e-05 1 2.0713193e-11
0.1372968 -0.022613589 1.0893998 0 1.4546317e-05 -1.9045116e-05 1 1.8485881e-11
0.14214255 -0.022613589 1.0893997 0 1.3450793e-05 -2.0947533e-05 1 2.1240809e-11
0.14698832 -0.022613587 1.0893997 0 1.2629588e-05 -2.0647813e-05 1 2.3249484e-11
0.15183407 -0.022613585 1.0893996 0 1.2671485e-05 -2.1988468e-05 1 1.9337826e-11
-0.11791409 -0.017767876 1.0894033 0 1.689385e-05 -1.7979535e-05 1 1.9895748e-11
-0.1130683 -0.017767876 1.0894032 0 1.5822485e-05 -1.7191029e-05 1 2.0567636e-11
-0.10822251 -0.017767875 1.0894032 0 1.3900443e-05 -1.7784016e-05 1 1.7537199e-11
-0.10337672 -0.017767873 1.089403 0 1.2532917e-05 -1.7811097e-05 1 1.720391e-11
-0.096915662 -0.017767873 1.0894029 0 1.1667288e-05 -1.8001665e-05 1 2.2446192e-11
-0.092069879 -0.017767871 1.0894029 0 1.3463669e-05 -1.8324377e-05 1 1.8241729e-11
-0.087224089 -0.017767869 1.0894029 0 1.2225988e-05 -1.976852e-05 1 2.4983874e-11
-0.082378298 -0.017767869 1.0894028 0 1.2242443e-05 -2.0850179e-05 1 2.7001894e-11
-0.077532515 -0.017767867 1.0894027 0 1.3316779e-05 -2.1322465e-05 1 2.0661035e-11
-0.072686717 -0.017767865 1.0894027 0 1.3589371e-05 -2.0209889e-05 1 2.034508e-11
-0.067840949 -0.017767867 1.0894026 0 1.1772452e-05 -2.0121084e-05 1 2.457106e-11
-0.062995158 -0.017767865 1.0894026 0 1.1302945e-05 -2.0362e-05 1 1.9353215e-11
-0.058149375 -0.017767865 1.0894026 0 1.1924097e-05 -1.8781851e-05 1 1.8504229e-11
-0.051688328 -0.017767863 1.0894024 0 1.4368577e-05 -1.9041918e-05 1 1.2787461e-11
-0.046842542 -0.017767861 1.0894023 0 1.3462732e-05 -1.8366723e-05 1 1.6891391e-11
-0.041996762 -0.017767861 1.0894023 0 1.2327781e-05 -1.8946603e-05 1 1.2978918e-11
-0.037150979 -0.01776786 1.0894022 0 1.2485234e-05 -1.8492958e-05 1 1.5044459e-11
-0.032305196 -0.017767858 1.0894022 0 1.2448727e-05 -1.9744326e-05 1 1.835037e-11
-0.027459417 -0.017767858 1.0894021 0 1.4527796e-05 -2.0178344e-05 1 1.8519587e-11
-0.022613635 -0.017767858 1.089402 0 1.4152209e-05 -1.8148892e-05 1 1.4116975e-11
-0.017767856 -0.017767856 1.089402 0 1.3098041e-05 -1.8492965e-05 1 1.6098373e-11
-0.012922075 -0.017767854 1.0894018 0 1.2116013e-05 -1.9536928e-05 1 1.6913268e-11
-0.0080762971 -0.017767854 1.0894018 0 1.242942e-05 -2.0460066e-05 1 1.9257963e-11
-0.0032305184 -0.017767852 1.0894017 0 1.4653495e-05 -1.8635696e-05 1 1.4818473e-11
0.0032305182 -0.01776785 1.0894017 0 1.6494356e-05 -2.035816e-05 1 1.3311382e-11
0.0080762953 -0.01776785 1.0894016 0 1.6129623e-05 -2.0747742e-05 1 2.2293811e-11
0.012922071 -0.01776785 1.0894015 0 1.5273192e-05 -1.8998924e-05 1 2.2410542e-11
0.017767848 -0.017767848 1.0894014 0 1.2694385e-05 -1.9224975e-05 1 2.2114349e-11
0.022613622 -0.017767845 1.0894014 0 1.020221e-05 -1.9490815e-05 1 1.8068344e-11
0.027459398 -0.017767845 1.0894014 0 1.1531242e-05 -1.8565454e-05 1 2.2452836e-11
0.03230517 -0.017767843 1.0894012 0 1.2852413e-05 -1.8946635e-05 1 1.0989506e-11
0.037150946 -0.017767843 1.0894012 0 1.2852414e-05 -1.8946639e-05 1 1.098947e-11
0.041996717 -0.017767841 1.0894011 0 1.2287047e-05 -1.934242e-05 1 1.7796202e-11
0.046842493 -0.017767841 1.0894011 0 1.2252292e-05 -1.9608406e-05 1 1.2040925e-11
0.051688261 -0.017767839 1.089401 0 1.3303348e-05 -1.9567866e-05 1 1.2810949e-11
0.058149286 -0.017767837 1.0894009 0 1.4939323e-05 -2.2039501e-05 1 1.3778649e-11
0.062995061 -0.017767837 1.0894009 0 1.4411919e-05 -2.1850663e-05 1 1.7290331e-11
0.067840829 -0.017767835 1.0894008 0 1.3936357e-05 -2.2247306e-05 1 2.1221138e-11
0.072686598 -0.017767835 1.0894008 0 1.2494888e-05 -2.1890364e-05 1 1.5448521e-11
0.077532366 -0.017767835 1.0894006 0 1.1896685e-05 -2.1891501e-05 1 1.7596766e-11
0.082378142 -0.017767834 1.0894006 0 1.3720495e-05 -2.240361e-05 1 1.8537772e-11
0.087223902 -0.017767832 1.0894005 0 1.3786648e-05 -2.1055546e-05 1 2.0861301e-11
0.092069678 -0.017767832 1.0894004 0 1.2627765e-05 -1.9960786e-05 1 2.0827132e-11
0.096915439 -0.01776783 1.0894004 0 1.1543106e-05 -1.9574651e-05 1 2.0240136e-11
0.10337646 -0.01776783 1.0894004 0 1.4471827e-05 -1.7667548e-05 1 2.234667e-11
0.10822222 -0.017767828 1.0894003 0 1.5170286e-05 -1.8082528e-05 1 2.3049521e-11
0.11306798 -0.017767826 1.0894002 0 1.4427802e-05 -1.8701574e-05 1 2.7052492e-11
0.11791375 -0.017767824 1.0894002 0 1.2546006e-05 -1.9638668e-05 1 3.4559453e-11
0.12275952 -0.017767824 1.0894001 0 1.2888951e-05 -1.8917459e-05 1 2.7771696e-11
0.12760529 -0.017767824 1.0894001 0 1.3442756e-05 -1.8924191e-05 1 2.4639592e-11
0.13245104 -0.017767822 1.0893999 0 1.2922787e-05 -1.8888226e-05 1 2.476825e-11
0.1372968 -0.017767821 1.0893999 0 1.2517396e-05 -1.9490861e-05 1 2.2006199e-11
0.14214256 -0.017767821 1.0893998 0 1.1328089e-05 -1.9874933e-05 1 1.8841005e-11
0.14698833 -0.017767821 1.0893998 0 1.1113922e-05 -2.1206608e-05 1 1.6298461e-11
0.15183409 -0.017767819 1.0893997 0 2.1641255e-05 -2.0109081e-05 1 2.4888218e-11
-0.12275989 -0.012922092 1.0894034 0 8.8307079e-06 -2.1503847e-05 1 1.5326703e-11
-0.1179141 -0.012922093 1.0894034 0 1.8490397e-05 -1.7269869e-05 1 2.1640844e-11
-0.1130683 -0.012922091 1.0894033 0 1.4686782e-05 -1.8305522e-05 1 1.9453876e-11
-0.10822251 -0.012922091 1.0894032 0 1.3682683e-05 -1.8019598e-05 1 1.647802e-11
-0.10337673 -0.012922091 1.0894032 0 1.3309125e-05 -1.7812819e-05 1 2.004687e-11
-0.096915677 -0.01292209 1.089403 0 1.120845e-05 -1.8109766e-05 1 2.3121833e-11
-0.092069879 -0.012922088 1.089403 0 1.1288821e-05 -1.7514478e-05 1 2.4299181e-11
-0.087224096 -0.012922088 1.0894029 0 1.0250841e-05 -1.8607738e-05 1 2.2219851e-11
-0.082378305 -0.012922088 1.0894029 0 1.2359901e-05 -1.9951487e-05 1 2.4166001e-11
-0.077532522 -0.012922087 1.0894028 0 1.2989047e-05 -1.9209501e-05 1 2.9128939e-11
-0.072686739 -0.012922087 1.0894028 0 1.3168376e-05 -1.8803836e-05 1 2.7891797e-11
-0.067840941 -0.012922085 1.0894027 0 1.2841201e-05 -1.7930395e-05 1 2.8068901e-11
-0.062995166 -0.012922084 1.0894027 0 1.2683304e-05 -1.7376158e-05 1 2.6617401e-11
-0.058149375 -0.012922084 1.0894026 0 1.2879767e-05 -1.6540454e-05 1 1.7820898e-11
-0.051688332 -0.012922082 1.0894024 0 1.403475e-05 -1.7839424e-05 1 1.4511095e-11
-0.046842549 -0.012922082 1.0894024 0 1.3469795e-05 -1.7677814e-05 1 1.7252946e-11
-0.041996762 -0.012922081 1.0894023 0 1.186686e-05 -1.8206079e-05 1 1.2167117e-11
-0.037150983 -0.01292208 1.0894023 0 1.1157933e-05 -1.9454972e-05 1 1.4668098e-11
-0.0323052 -0.012922079 1.0894022 0 1.3688349e-05 -1.8810097e-05 1 1.8568501e-11
-0.027459418 -0.012922079 1.0894022 0 1.4742518e-05 -1.8539567e-05 1 1.8717434e-11
-0.022613637 -0.012922078 1.0894021 0 1.4124126e-05 -1.9441839e-05 1 1.6889221e-11
-0.017767858 -0.012922077 1.0894021 0 1.1896655e-05 -2.0775051e-05 1 1.8777551e-11
-0.012922077 -0.012922077 1.089402 0 1.1637875e-05 -1.9584104e-05 1 2.1056899e-11
-0.0080762971 -0.012922076 1.089402 0 1.2862719e-05 -1.9495519e-05 1 1.9092112e-11
-0.0032305191 -0.012922076 1.0894018 0 1.3713016e-05 -2.0269779e-05 1 2.0881581e-11
0.0032305184 -0.012922075 1.0894017 0 1.6694838e-05 -1.9307645e-05 1 1.6177983e-11
0.0080762962 -0.012922074 1.0894017 0 1.6240503e-05 -1.9401623e-05 1 1.8921588e-11
0.012922073 -0.012922072 1.0894016 0 1.5630851e-05 -2.0975047e-05 1 2.2338038e-11
0.01776785 -0.012922071 1.0894015 0 1.1896664e-05 -2.0968953e-05 1 2.5668891e-11
0.022613626 -0.012922072 1.0894015 0 1.0497288e-05 -2.1359125e-05 1 2.0931021e-11
0.0274594 -0.01292207 1.0894015 0 1.1306355e-05 -2.1314314e-05 1 1.7349015e-11
0.032305174 -0.012922069 1.0894014 0 1.3109404e-05 -2.0309393e-05 1 1.8440281e-11
0.037150949 -0.012922069 1.0894012 0 1.3697989e-05 -1.9183046e-05 1 1.4568855e-11
0.041996717 -0.012922067 1.0894012 0 1.2389906e-05 -1.7679185e-05 1 1.4112398e-11
0.046842493 -0.012922067 1.0894012 0 1.2086604e-05 -1.7821456e-05 1 1.1746229e-11
0.051688265 -0.012922066 1.0894011 0 1.149223e-05 -1.9164399e-05 1 1.4888956e-11
0.058149293 -0.012922065 1.089401 0 1.3559389e-05 -2.1425245e-05 1 2.1945562e-11
0.062995061 -0.012922064 1.089401 0 1.417003e-05 -2.2437025e-05 1 2.1582819e-11
0.067840837 -0.012922063 1.0894009 0 1.4869945e-05 -2.2562381e-05 1 2.5573604e-11
0.072686605 -0.012922063 1.0894008 0 1.345176e-05 -2.2144546e-05 1 2.6537455e-11
0.077532366 -0.012922063 1.0894008 0 1.3322955e-05 -2.1360616e-05 1 2.8687542e-11
0.082378142 -0.012922062 1.0894008 0 1.3442737e-05 -2.005956e-05 1 2.3478651e-11
0.087223917 -0.012922062 1.0894006 0 1.3625296e-05 -2.161637e-05 1 2.563018e-11
0.092069685 -0.01292206 1.0894005 0 1.2744071e-05 -2.1500082e-05 1 1.9316345e-11
0.096915446 -0.012922059 1.0894005 0 1.1557438e-05 -1.9601832e-05 1 2.0185645e-11
0.10337648 -0.012922059 1.0894004 0 1.3851313e-05 -1.9035084e-05 1 2.4696157e-11
0.10822223 -0.012922058 1.0894003 0 1.4112949e-05 -2.0170415e-05 1 2.7646063e-11
0.113068 -0.012922058 1.0894003 0 1.3208562e-05 -2.0149491e-05 1 3.1929639e-11
0.11791377 -0.012922057 1.0894002 0 1.134461e-05 -2.0406645e-05 1 3.1817486e-11
0.12275953 -0.012922056 1.0894002 0 1.211544e-05 -2.1332837e-05 1 3.2695621e-11
0.12760529 -0.012922054 1.0894001 0 1.4653761e-05 -2.0216508e-05 1 2.6394095e-11
0.13245106 -0.012922054 1.0894001 0 1.4621658e-05 -1.8704541e-05 1 2.0181657e-11
0.13729683 -0.012922053 1.0893999 0 1.1934933e-05 -1.9201872e-05 1 2.2974062e-11
0.14214258 -0.012922052 1.0893999 0 1.1304141e-05 -2.0346677e-05 1 1.919542e-11
0.14698833 -0.012922052 1.0893999 0 1.3151771e-05 -1.9626317e-05 1 2.0506881e-11
0.1518341 -0.012922051 1.0893998 0 1.3435862e-05 -1.8107714e-05 1 2.6705294e-11
-0.1227599 -0.0080763092 1.0894035 0 1.3079344e-05 -1.5457452e-05 1 2.1966628e-11
-0.1179141 -0.0080763083 1.0894034 0 1.5071543e-05 -1.735009e-05 1 1.4915279e-11
-0.11306832 -0.0080763083 1.0894034 0 1.4339868e-05 -1.8221819e-05 1 1.3973923e-11
-0.10822252 -0.0080763074 1.0894033 0 1.5084423e-05 -1.8552817e-05 1 1.3786102e-11
-0.10337674 -0.0080763074 1.0894033 0 1.3575359e-05 -1.8105877e-05 1 1.6483386e-11
-0.096915677 -0.0080763064 1.0894032 0 1.1433231e-05 -1.8004401e-05 1 2.3063993e-11
-0.092069894 -0.0080763064 1.089403 0 1.1665305e-05 -1.8295073e-05 1 2.272873e-11
-0.087224104 -0.0080763055 1.089403 0 1.0475291e-05 -1.8508057e-05 1 2.6943578e-11
-0.082378313 -0.0080763046 1.089403 0 1.213803e-05 -1.8679946e-05 1 2.7399303e-11
-0.077532522 -0.0080763046 1.0894029 0 1.4191428e-05 -1.7387609e-05 1 2.6970154e-11
-0.072686747 -0.0080763046 1.0894029 0 1.3366212e-05 -1.8239918e-05 1 2.2760455e-11
-0.067840949 -0.0080763036 1.0894028 0 1.3958985e-05 -1.7624623e-05 1 3.2910903e-11
-0.062995166 -0.0080763027 1.0894027 0 1.3830958e-05 -1.5878064e-05 1 2.6739505e-11
-0.058149382 -0.0080763027 1.0894027 0 1.2814128e-05 -1.515395e-05 1 1.6041217e-11
-0.051688336 -0.0080763027 1.0894026 0 1.2651129e-05 -1.6938218e-05 1 1.6227523e-11
-0.046842553 -0.0080763027 1.0894026 0 1.2644686e-05 -1.8832376e-05 1 1.726284e-11
-0.04199677 -0.0080763027 1.0894024 0 1.2220205e-05 -1.8653946e-05 1 1.582127e-11
-0.037150986 -0.0080763018 1.0894024 0 1.1420146e-05 -1.8146917e-05 1 1.7129281e-11
-0.032305203 -0.0080763008 1.0894023 0 1.2913169e-05 -1.8831233e-05 1 2.0378326e-11
-0.027459422 -0.0080763008 1.0894023 0 1.4259647e-05 -1.866461e-05 1 1.9738523e-11
-0.022613639 -0.0080762999 1.0894022 0 1.4026597e-05 -1.8190225e-05 1 2.2073728e-11
-0.01776786 -0.0080762999 1.0894021 0 1.2091511e-05 -1.9131461e-05 1 2.1153511e-11
-0.012922078 -0.008076299 1.0894021 0 1.1613569e-05 -1.894971e-05 1 2.3059211e-11
-0.008076299 -0.008076299 1.0894021 0 1.3076185e-05 -1.9033952e-05 1 1.9589649e-11
-0.0032305191 -0.0080762981 1.089402 0 1.4228121e-05 -1.9021725e-05 1 2.0396875e-11
0.0032305187 -0.0080762971 1.0894018 0 1.6406204e-05 -1.9532979e-05 1 1.5869998e-11
0.0080762962 -0.0080762962 1.0894017 0 1.4126344e-05 -1.9803401e-05 1 1.8308799e-11
0.012922074 -0.0080762962 1.0894017 0 1.4414168e-05 -2.1051044e-05 1 1.7464571e-11
0.01776785 -0.0080762953 1.0894016 0 1.173846e-05 -2.1721085e-05 1 2.1328508e-11
0.022613626 -0.0080762953 1.0894016 0 1.0707317e-05 -2.1996973e-05 1 1.4385185e-11
0.027459402 -0.0080762943 1.0894015 0 1.2816641e-05 -2.1319634e-05 1 1.4250478e-11
0.032305177 -0.0080762943 1.0894015 0 1.4762722e-05 -1.9678771e-05 1 1.47998e-11
0.037150949 -0.0080762934 1.0894014 0 1.4036934e-05 -1.8604655e-05 1 1.408207e-11
0.041996725 -0.0080762934 1.0894014 0 1.2184675e-05 -1.8741741e-05 1 1.3625505e-11
0.046842497 -0.0080762925 1.0894012 0 1.2158374e-05 -1.8379713e-05 1 1.2232868e-11
0.051688269 -0.0080762915 1.0894012 0 1.0765412e-05 -1.8984012e-05 1 1.374926e-11
0.058149301 -0.0080762915 1.0894011 0 1.2040653e-05 -2.0559548e-05 1 1.9641903e-11
0.062995076 -0.0080762915 1.0894011 0 1.308413e-05 -2.1196935e-05 1 2.0118626e-11
0.067840844 -0.0080762906 1.089401 0 1.4106658e-05 -2.1211916e-05 1 2.5953047e-11
0.072686613 -0.0080762897 1.0894009 0 1.3835167e-05 -2.0174655e-05 1 2.6680142e-11
0.077532381 -0.0080762897 1.0894009 0 1.3570119e-05 -2.0481772e-05 1 2.6983511e-11
0.082378156 -0.0080762897 1.0894008 0 1.2711918e-05 -1.9266712e-05 1 1.944973e-11
0.087223917 -0.0080762887 1.0894008 0 1.3005594e-05 -2.0345173e-05 1 2.103471e-11
0.092069685 -0.0080762878 1.0894006 0 1.288933e-05 -2.1324478e-05 1 1.9627586e-11
0.096915454 -0.0080762878 1.0894006 0 1.3908468e-05 -2.0640267e-05 1 1.4598283e-11
0.10337648 -0.0080762869 1.0894005 0 1.5374239e-05 -1.9702395e-05 1 1.9847809e-11
0.10822224 -0.0080762859 1.0894004 0 1.4205454e-05 -1.9136252e-05 1 2.9721378e-11
0.113068 -0.0080762859 1.0894004 0 1.2646252e-05 -2.006153e-05 1 2.6968873e-11
0.11791378 -0.0080762859 1.0894004 0 1.3004989e-05 -1.9247804e-05 1 2.7576318e-11
0.12275954 -0.0080762859 1.0894003 0 1.3474008e-05 -1.9089772e-05 1 3.1349683e-11
0.1276053 -0.008076285 1.0894002 0 1.3493248e-05 -1.8656543e-05 1 3.6014389e-11
0.13245106 -0.0080762841 1.0894002 0 1.2101689e-05 -1.9616831e-05 1 2.6102707e-11
0.13729683 -0.0080762841 1.0894001 0 1.0809276e-05 -1.9541829e-05 1 2.1072763e-11
0.14214259 -0.0080762841 1.0894001 0 1.2197154e-05 -1.9991792e-05 1 1.9412007e-11
0.14698836 -0.0080762841 1.0893999 0 1.5015783e-05 -1.8177099e-05 1 2.3654575e-11
0.15183412 -0.0080762831 1.0893999 0 1.3081734e-05 -1.8919278e-05 1 2.0191617e-11
-0.12275991 -0.0032305238 1.0894036 0 1.6776154e-05 -1.8438986e-05 1 2.267344e-11
-0.11791412 -0.0032305238 1.0894035 0 1.4538318e-05 -1.8659806e-05 1 1.5164573e-11
-0.11306833 -0.0032305236 1.0894034 0 1.4009912e-05 -1.9414023e-05 1 1.6467331e-11
-0.10822254 -0.0032305233 1.0894034 0 1.411839e-05 -1.9463356e-05 1 1.5299928e-11
-0.10337674 -0.0032305233 1.0894033 0 1.241471e-05 -2.1017844e-05 1 1.7498478e-11
-0.096915692 -0.0032305229 1.0894033 0 1.1877681e-05 -2.065941e-05 1 2.2970206e-11
-0.092069894 -0.0032305226 1.0894032 0 1.1871106e-05 -1.9128393e-05 1 2.2943095e-11
-0.087224111 -0.0032305229 1.0894032 0 1.1417565e-05 -1.8437388e-05 1 2.4778441e-11
-0.08237832 -0.0032305224 1.089403 0 1.1150105e-05 -1.8194542e-05 1 2.6596184e-11
-0.07753253 -0.0032305224 1.089403 0 1.2775343e-05 -1.8308743e-05 1 2.4014131e-11
-0.072686747 -0.0032305219 1.0894029 0 1.470586e-05 -1.9215075e-05 1 2.2338001e-11
-0.067840956 -0.0032305219 1.0894028 0 1.5172554e-05 -1.7319015e-05 1 2.548621e-11
-0.062995173 -0.0032305217 1.0894028 0 1.3995277e-05 -1.7992979e-05 1 2.2926858e-11
-0.058149386 -0.0032305215 1.0894027 0 1.209403e-05 -1.8328934e-05 1 2.0415175e-11
-0.05168834 -0.003230521 1.0894027 0 1.2829637e-05 -1.8071296e-05 1 1.6955671e-11
-0.046842553 -0.003230521 1.0894026 0 1.1424146e-05 -1.8369636e-05 1 1.6240662e-11
-0.04199677 -0.0032305208 1.0894026 0 1.2072956e-05 -1.974609e-05 1 1.5622283e-11
-0.037150986 -0.0032305205 1.0894024 0 1.2706559e-05 -1.8477023e-05 1 1.7456129e-11
-0.032305203 -0.0032305201 1.0894024 0 1.310129e-05 -1.8710232e-05 1 1.8349065e-11
-0.027459424 -0.0032305203 1.0894023 0 1.3810997e-05 -1.875608e-05 1 1.933336e-11
-0.022613641 -0.0032305201 1.0894023 0 1.2548265e-05 -1.9358407e-05 1 2.3214146e-11
-0.01776786 -0.0032305198 1.0894022 0 1.2999523e-05 -1.8495866e-05 1 2.2584584e-11
-0.012922078 -0.0032305196 1.0894022 0 1.2305543e-05 -1.9044879e-05 1 2.4549352e-11
-0.008076299 -0.0032305196 1.0894021 0 1.2812963e-05 -1.8163319e-05 1 2.1622549e-11
-0.0032305196 -0.0032305196 1.0894021 0 1.4045634e-05 -1.8913403e-05 1 1.9616286e-11
0.0032305191 -0.0032305191 1.089402 0 1.5285217e-05 -1.9060197e-05 1 1.8294592e-11
0.0080762971 -0.0032305187 1.0894018 0 1.3939658e-05 -2.1145579e-05 1 1.654653e-11
0.012922075 -0.0032305184 1.0894018 0 1.2762576e-05 -2.1969343e-05 1 1.6307278e-11
0.017767852 -0.0032305184 1.0894017 0 1.1666722e-05 -2.1286038e-05 1 1.8435992e-11
0.02261363 -0.0032305182 1.0894017 0 1.2126833e-05 -2.1552036e-05 1 1.8078278e-11
0.027459405 -0.0032305182 1.0894016 0 1.3380367e-05 -2.0773923e-05 1 1.87673e-11
0.032305181 -0.0032305177 1.0894016 0 1.5042554e-05 -2.0081246e-05 1 1.4326471e-11
0.037150953 -0.0032305177 1.0894015 0 1.4856198e-05 -1.9039469e-05 1 1.5822111e-11
0.041996725 -0.0032305173 1.0894014 0 1.3281703e-05 -1.9318879e-05 1 1.7423842e-11
0.046842501 -0.0032305173 1.0894014 0 1.2062331e-05 -1.9171106e-05 1 1.3878184e-11
0.051688276 -0.0032305173 1.0894012 0 1.1069865e-05 -1.9177856e-05 1 1.4298084e-11
0.058149308 -0.0032305168 1.0894012 0 1.0684174e-05 -2.0366309e-05 1 1.9188186e-11
0.062995076 -0.0032305168 1.0894012 0 1.423599e-05 -2.1048239e-05 1 2.1788741e-11
0.067840852 -0.0032305163 1.0894011 0 1.5033708e-05 -2.1752458e-05 1 2.3120398e-11
0.07268662 -0.0032305163 1.089401 0 1.552755e-05 -2.0958574e-05 1 2.5193412e-11
0.077532388 -0.0032305161 1.089401 0 1.4251983e-05 -2.0236639e-05 1 2.6513501e-11
0.082378164 -0.0032305159 1.0894009 0 1.3955281e-05 -1.9847113e-05 1 2.8372372e-11
0.087223932 -0.0032305159 1.0894009 0 1.2603914e-05 -1.9971738e-05 1 2.3550283e-11
0.092069693 -0.0032305156 1.0894008 0 1.1960836e-05 -1.9635645e-05 1 2.3076537e-11
0.096915469 -0.0032305154 1.0894008 0 1.3725563e-05 -2.0839836e-05 1 1.999499e-11
0.10337649 -0.0032305154 1.0894006 0 1.517227e-05 -2.1565065e-05 1 2.1605039e-11
0.10822225 -0.0032305149 1.0894005 0 1.4135793e-05 -2.0701131e-05 1 2.254618e-11
0.11306801 -0.0032305149 1.0894005 0 1.2135483e-05 -1.9653384e-05 1 2.3117213e-11
0.11791379 -0.0032305147 1.0894004 0 1.2794694e-05 -1.914878e-05 1 2.918004e-11
0.12275955 -0.0032305145 1.0894004 0 1.3723914e-05 -1.8905977e-05 1 2.9965808e-11
0.1276053 -0.0032305142 1.0894003 0 1.464881e-05 -1.8415818e-05 1 2.4706003e-11
0.13245109 -0.003230514 1.0894002 0 1.2361666e-05 -1.9588146e-05 1 2.4356316e-11
0.13729684 -0.0032305138 1.0894002 0 1.191078e-05 -2.0528512e-05 1 2.3432903e-11
0.14214259 -0.0032305135 1.0894002 0 1.3694842e-05 -1.9272011e-05 1 1.7785549e-11
0.14698836 -0.0032305135 1.0894001 0 1.3272063e-05 -1.7549311e-05 1 1.5797957e-11
0.15183412 -0.0032305131 1.0893999 0 1.2887829e-05 -1.7237462e-05 1 1.8048641e-11
-0.12275992 0.0032305245 1.0894037 0 1.7588007e-05 -1.6742824e-05 1 3.5994797e-11
-0.11791413 0.0032305242 1.0894036 0 1.3414785e-05 -1.6824644e-05 1 3.2831623e-11
-0.11306833 0.0032305242 1.0894035 0 1.2426372e-05 -1.7345978e-05 1 2.7214356e-11
-0.10822254 0.0032305238 1.0894035 0 1.1985991e-05 -1.9315552e-05 1 2.4360361e-11
