# .PCD v0.7 - Point Cloud Data file format
VERSION 0.7
FIELDS x y z rgb normal_x normal_y normal_z curvature
SIZE 4 4 4 4 4 4 4 4
TYPE F F F U F F F F
COUNT 1 1 1 1 1 1 1 1
WIDTH 546
HEIGHT 1
VIEWPOINT 0 0 0 1 0 0 0
POINTS 546
DATA ascii
0.54010117 -0.0099593438 0.10000015 9013641 -1.3974095e-06 -6.9018319e-07 -1 5.3189779e-12
0.54010117 -0.01480511 0.10000015 9013641 -5.7760371e-07 -8.8766626e-07 -1 5.0323651e-12
0.54010117 -0.019650878 0.10000015 9013641 1.5571845e-07 -4.0085061e-07 -1 5.1006369e-12
0.53525537 0.044959344 0.10000017 9013641 -3.5572589e-07 5.3264864e-07 -1 6.5549172e-12
0.53525537 0.040113576 0.10000017 9013641 -1.4505606e-06 1.2110427e-06 -1 4.9104791e-12
0.53525537 0.035267815 0.10000017 9013641 -2.3606076e-06 1.2887482e-06 -1 4.7406501e-12
0.53525543 0.030422045 0.10000017 9013641 -3.0913552e-06 1.2216408e-06 -1 4.2687594e-12
0.53525543 0.025576279 0.10000017 9013641 -3.1909271e-06 1.0091355e-06 -1 3.8613865e-12
0.53525543 0.020730512 0.10000017 9013641 -3.2058238e-06 6.7732134e-07 -1 3.5684277e-12
0.53525543 0.014269488 0.10000017 9013641 -1.9174993e-06 -2.1353706e-08 -1 4.0232071e-12
0.53525543 0.0094237216 0.10000017 9013641 -1.4047157e-06 -5.7722309e-07 -1 4.1803588e-12
0.53525543 0.0045779552 0.10000017 9013641 -2.060583e-07 -6.000289e-07 -1 4.1613119e-12
0.53525543 -0.00026781298 0.10000017 9013641 5.878785e-07 -6.7008421e-07 -1 4.1913916e-12
0.53525543 -0.0051135793 0.10000017 9013641 1.0289416e-06 -6.9876558e-07 -1 4.2415203e-12
0.53525543 -0.0099593457 0.10000017 9013641 1.2332391e-06 -8.4052886e-07 -1 4.4882531e-12
0.53525543 -0.014805114 0.10000017 9013641 1.4287546e-06 -9.3732774e-07 -1 4.0036824e-12
0.53525543 -0.019650882 0.10000017 9013641 1.0557767e-06 -7.3489588e-07 -1 3.9607011e-12
0.53525543 -0.024496647 0.10000017 9013641 4.6430409e-07 -3.4683706e-07 -1 3.9378336e-12
0.53525543 -0.029342415 0.10000017 9013641 3.565799e-07 -4.7100909e-07 -1 4.0666823e-12
0.53525543 -0.034188181 0.10000017 9013641 -1.4400371e-07 -2.9217145e-07 -1 4.1804004e-12
0.53525537 -0.040649198 0.10000017 9013641 -1.1854117e-06 -1.235374e-07 -1 4.7494712e-12
0.53040963 0.05465088 0.10000019 9013641 -1.1992211e-06 -1.8084348e-06 -1 7.7775486e-12
0.53040963 0.049805112 0.10000019 9013641 -1.3160436e-06 -7.1972892e-07 -1 7.2846069e-12
0.53040963 0.044959344 0.10000019 9013641 -1.3292295e-06 3.8488329e-07 -1 7.3006002e-12
0.53040963 0.040113579 0.10000019 9013641 -1.1015318e-06 1.1076189e-06 -1 4.0809153e-12
0.53040963 0.035267815 0.10000019 9013641 -8.6752084e-07 1.247821e-06 -1 3.7326934e-12
0.53040963 0.030422045 0.10000019 9013641 -7.2242597e-07 1.326251e-06 -1 3.4075505e-12
0.53040963 0.025576279 0.10000019 9013641 -4.5117554e-07 1.3236704e-06 -1 3.096345e-12
0.53040963 0.020730512 0.10000019 9013641 -3.4356071e-07 1.1298512e-06 -1 2.8719622e-12
0.53040963 0.014269489 0.10000019 9013641 2.4612859e-07 7.4171044e-07 -1 3.2319731e-12
0.53040963 0.0094237216 0.10000019 9013641 6.0649677e-07 2.1019514e-07 -1 3.4498292e-12
0.53040963 0.0045779552 0.10000019 9013641 1.3394817e-06 -7.6601019e-08 -1 3.6152368e-12
0.53040963 -0.00026781298 0.10000019 9013641 1.8119551e-06 -3.3988633e-07 -1 3.4547773e-12
0.53040963 -0.0051135793 0.10000019 9013641 2.0018776e-06 -5.3383621e-07 -1 3.4838603e-12
0.53040963 -0.0099593457 0.10000019 9013641 2.0682485e-06 -8.4107768e-07 -1 3.8316312e-12
0.53040963 -0.014805114 0.10000019 9013641 2.1297781e-06 -1.0861453e-06 -1 3.4557932e-12
0.53040963 -0.019650882 0.10000019 9013641 1.8728663e-06 -1.0639577e-06 -1 3.3556651e-12
0.53040963 -0.024496647 0.10000019 9013641 1.540345e-06 -8.5374035e-07 -1 3.4036688e-12
0.53040963 -0.029342415 0.10000019 9013641 1.4778377e-06 -9.4856932e-07 -1 3.4777283e-12
0.53040963 -0.034188181 0.10000019 9013641 9.938401e-07 -7.7242896e-07 -1 3.5842182e-12
0.53040963 -0.040649205 0.10000019 9013641 -1.5619298e-07 -4.3078475e-07 -1 4.3248204e-12
0.53040963 -0.045494974 0.10000019 9013641 -6.1277296e-07 -2.3740978e-07 -1 5.8996484e-12
0.53040963 -0.050340742 0.10000019 9013641 -1.5317923e-06 3.0503816e-07 -1 6.9543898e-12
0.53040963 -0.055186503 0.10000019 9013641 -1.0489225e-06 1.0639201e-06 -1 7.5549888e-12
0.5255639 0.064342409 0.1000002 9013641 -7.7228492e-07 -2.5546312e-06 -1 8.0194081e-12
0.5255639 0.059496649 0.1000002 9013641 -5.2730365e-07 -2.6553448e-06 -1 7.3219703e-12
0.5255639 0.05465088 0.1000002 9013641 -8.5871307e-08 -1.5472963e-06 -1 6.913027e-12
0.5255639 0.049805112 0.1000002 9013641 1.9043841e-07 -5.3664718e-07 -1 6.6972326e-12
0.5255639 0.044959344 0.1000002 9013641 5.2498081e-08 3.526653e-07 -1 6.5561384e-12
0.5255639 0.040113579 0.1000002 9013641 -3.4056029e-08 8.7501172e-07 -1 5.5645835e-12
0.5255639 0.035267815 0.1000002 9013641 2.032109e-07 1.3558578e-06 -1 3.7171169e-12
0.5255639 0.030422047 0.1000002 9013641 3.921034e-07 1.4530931e-06 -1 3.4855246e-12
0.5255639 0.025576279 0.1000002 9013641 5.1181655e-07 1.4131238e-06 -1 3.386322e-12
0.5255639 0.020730512 0.1000002 9013641 6.1629703e-07 1.2158197e-06 -1 3.2353974e-12
0.5255639 0.014269488 0.1000002 9013641 7.6049605e-07 8.8046494e-07 -1 3.6811253e-12
0.5255639 0.0094237216 0.1000002 9013641 9.5423616e-07 4.2282431e-07 -1 3.7689999e-12
0.5255639 0.0045779552 0.1000002 9013641 1.4121918e-06 5.7447785e-08 -1 3.8372109e-12
0.5255639 -0.00026781298 0.1000002 9013641 1.7327764e-06 -2.8591131e-07 -1 3.6935806e-12
0.5255639 -0.0051135793 0.1000002 9013641 1.8752146e-06 -4.9609514e-07 -1 3.7078314e-12
0.5255639 -0.0099593457 0.1000002 9013641 1.887375e-06 -7.7232295e-07 -1 3.9432737e-12
0.5255639 -0.014805114 0.1000002 9013641 1.9274651e-06 -1.0006374e-06 -1 3.9604379e-12
0.5255639 -0.019650882 0.1000002 9013641 1.8310745e-06 -1.1391976e-06 -1 3.679535e-12
0.5255639 -0.024496647 0.1000002 9013641 1.6292609e-06 -1.0325492e-06 -1 3.6327744e-12
0.5255639 -0.029342415 0.1000002 9013641 1.6094571e-06 -1.1006243e-06 -1 3.5984488e-12
0.5255639 -0.034188181 0.1000002 9013641 1.3148426e-06 -1.0199274e-06 -1 3.6451176e-12
0.5255639 -0.040649205 0.1000002 9013641 1.0892284e-06 -7.2896358e-07 -1 4.4739603e-12
0.5255639 -0.045494974 0.1000002 9013641 1.1941827e-06 -4.8670017e-07 -1 5.2734067e-12
0.5255639 -0.050340742 0.1000002 9013641 6.8196618e-07 5.5081912e-08 -1 6.3161906e-12
0.5255639 -0.05518651 0.1000002 9013641 8.6275099e-07 6.2293941e-07 -1 6.6317425e-12
0.5255639 -0.060032278 0.1000002 9013641 8.0454015e-07 1.2505001e-06 -1 7.188351e-12
0.5255639 -0.064878032 0.1000002 9013641 1.1853028e-06 1.2525219e-06 -1 8.9357202e-12
0.5207181 0.069188185 0.10000023 9013641 2.9654279e-07 -1.6851073e-06 -1 9.1748501e-12
0.5207181 0.064342417 0.10000023 9013641 1.5470303e-06 -7.4345746e-07 -1 7.5621688e-12
0.5207181 0.059496649 0.10000023 9013641 1.4864543e-06 -9.6294264e-07 -1 6.7715182e-12
0.5207181 0.05465088 0.10000023 9013641 1.1802751e-06 -1.1972476e-06 -1 6.4279463e-12
0.5207181 0.049805112 0.10000023 9013641 1.0761912e-06 -6.178866e-07 -1 6.5499659e-12
0.5207181 0.044959344 0.10000023 9013641 1.1222348e-06 3.0209483e-07 -1 6.4455893e-12
0.5207181 0.040113579 0.10000023 9013641 1.1359791e-06 8.6234957e-07 -1 5.5671882e-12
0.5207181 0.035267815 0.10000023 9013641 1.1931108e-06 1.4217052e-06 -1 4.1943441e-12
0.5207181 0.030422045 0.10000023 9013641 1.294826e-06 1.5368817e-06 -1 3.4830489e-12
0.5207181 0.025576279 0.10000023 9013641 1.3733254e-06 1.3951357e-06 -1 3.2778019e-12
0.5207181 0.020730512 0.10000023 9013641 1.5406606e-06 1.3144061e-06 -1 3.0812421e-12
0.5207181 0.014269489 0.10000023 9013641 1.5194271e-06 1.0105185e-06 -1 3.3496034e-12
0.5207181 0.0094237207 0.10000023 9013641 1.6837823e-06 5.6234433e-07 -1 3.4531594e-12
0.5207181 0.0045779534 0.10000011 9013641 1.9057327e-06 2.4089306e-07 -1 3.4615488e-12
0.5207181 -0.00026781484 0.10000011 9013641 2.1251174e-06 -1.1688496e-07 -1 3.3183738e-12
0.5207181 -0.0051135812 0.10000011 9013641 2.2533457e-06 -4.7254869e-07 -1 3.3464646e-12
0.5207181 -0.0099593494 0.10000023 9013641 2.281319e-06 -6.7205747e-07 -1 3.4408477e-12
0.5207181 -0.014805114 0.10000023 9013641 2.3343925e-06 -9.6978192e-07 -1 3.466828e-12
0.5207181 -0.019650882 0.10000023 9013641 2.323178e-06 -1.1537194e-06 -1 3.3093684e-12
0.5207181 -0.024496647 0.10000023 9013641 2.2021525e-06 -1.150751e-06 -1 3.2958972e-12
0.5207181 -0.029342415 0.10000023 9013641 2.124031e-06 -1.3044912e-06 -1 3.4021484e-12
0.5207181 -0.034188181 0.10000023 9013641 1.7015957e-06 -1.3821225e-06 -1 3.4639197e-12
0.5207181 -0.040649205 0.10000023 9013641 1.5573557e-06 -7.4651382e-07 -1 4.8362113e-12
0.5207181 -0.045494974 0.10000023 9013641 1.4401851e-06 -3.1154721e-07 -1 5.62639e-12
0.5207181 -0.050340742 0.10000023 9013641 1.5800354e-06 1.7640802e-07 -1 5.9698128e-12
0.5207181 -0.05518651 0.10000023 9013641 1.7664549e-06 5.1622482e-07 -1 6.0642641e-12
0.5207181 -0.060032278 0.10000023 9013641 2.1858975e-06 1.2495121e-07 -1 6.9947923e-12
0.5207181 -0.064878039 0.10000023 9013641 2.0340628e-06 9.6308258e-07 -1 8.0581965e-12
0.5207181 -0.069723815 0.10000023 9013641 5.3765712e-07 2.4826277e-06 -1 8.5870573e-12
0.51587236 0.075649209 0.10000012 9013641 1.2022922e-06 -1.2562606e-06 -1 9.3608133e-12
0.51587236 0.069188185 0.10000024 9013641 1.4097225e-06 -1.2480554e-06 -1 8.0869339e-12
0.51587236 0.064342417 0.10000024 9013641 2.0541436e-06 -8.5030882e-07 -1 7.5328953e-12
0.51587236 0.059496649 0.10000024 9013641 1.9392817e-06 -8.976067e-07 -1 6.1654852e-12
0.51587236 0.05465088 0.10000024 9013641 1.8283406e-06 -1.0224556e-06 -1 6.0193257e-12
0.51587236 0.049805112 0.10000024 9013641 1.9935476e-06 -4.7101389e-07 -1 5.9640114e-12
0.51587236 0.044959344 0.10000024 9013641 2.0549148e-06 3.7394713e-07 -1 5.7882722e-12
0.51587236 0.040113579 0.10000024 9013641 2.0837576e-06 8.4496122e-07 -1 5.246947e-12
0.51587236 0.035267815 0.10000024 9013641 2.0912864e-06 1.4387427e-06 -1 4.1962983e-12
0.51587236 0.030422047 0.10000024 9013641 2.1147951e-06 1.6644427e-06 -1 3.1579366e-12
0.51587236 0.025576279 0.10000012 9013641 2.1485164e-06 1.4997515e-06 -1 3.0702472e-12
0.51587236 0.020730512 0.10000012 9013641 2.1715452e-06 1.2903673e-06 -1 2.9652366e-12
0.51587236 0.014269488 0.10000012 9013641 2.1421854e-06 9.4957744e-07 -1 2.8868409e-12
0.51587236 0.0094237207 0.10000012 9013641 2.1875974e-06 6.7990624e-07 -1 2.9432856e-12
0.51587236 0.0045779534 0.10000012 9013641 2.2683478e-06 3.8555316e-07 -1 2.9798353e-12
0.51587236 -0.00026781484 0.10000012 9013641 2.3562754e-06 6.63143e-08 -1 2.8927863e-12
0.51587236 -0.0051135812 0.10000012 9013641 2.5170755e-06 -3.2445604e-07 -1 2.9888136e-12
0.51587236 -0.0099593494 0.10000012 9013641 2.5491461e-06 -6.8547422e-07 -1 3.0126659e-12
0.51587236 -0.014805118 0.10000012 9013641 2.5872162e-06 -8.7572482e-07 -1 2.9332918e-12
0.51587236 -0.019650886 0.10000012 9013641 2.6673104e-06 -1.1298675e-06 -1 2.8185644e-12
0.51587236 -0.02449665 0.10000012 9013641 2.6143182e-06 -1.2399255e-06 -1 2.8884232e-12
0.51587236 -0.029342419 0.10000012 9013641 2.4555027e-06 -1.5180946e-06 -1 2.9732985e-12
0.51587236 -0.034188189 0.10000024 9013641 2.3560767e-06 -1.4621946e-06 -1 3.5908052e-12
0.51587236 -0.040649205 0.10000024 9013641 2.2785705e-06 -7.9554951e-07 -1 4.6543333e-12
0.51587236 -0.045494974 0.10000024 9013641 2.2754782e-06 -3.4429979e-07 -1 5.0051937e-12
0.51587236 -0.050340742 0.10000024 9013641 2.2963757e-06 1.4768597e-07 -1 5.2530107e-12
0.51587236 -0.05518651 0.10000024 9013641 2.2950401e-06 5.1441395e-07 -1 5.478562e-12
0.51587236 -0.060032278 0.10000024 9013641 2.6523178e-06 6.3863632e-07 -1 6.4018279e-12
0.51587236 -0.064878054 0.10000024 9013641 2.809081e-06 9.0075207e-07 -1 7.0716601e-12
0.51587236 -0.069723815 0.10000024 9013641 2.4110361e-06 1.4172761e-06 -1 6.7179626e-12
0.51587236 -0.074569583 0.10000012 9013641 1.7223917e-06 2.3422285e-06 -1 7.01951e-12
0.50941133 0.090186507 0.10000014 9013641 4.993406e-06 2.8887912e-06 -1 1.0710018e-11
0.50941133 0.085340738 0.10000014 9013641 3.3204044e-06 9.3918305e-07 -1 1.0438744e-11
0.50941133 0.080494978 0.10000014 9013641 2.37569e-06 -1.3326839e-07 -1 9.3902663e-12
0.50941133 0.075649209 0.10000014 9013641 2.4794688e-06 -7.5116714e-07 -1 8.185219e-12
0.50941133 0.069188185 0.10000014 9013641 2.5130987e-06 -1.0838623e-06 -1 7.1493367e-12
0.50941133 0.064342417 0.10000014 9013641 2.4185526e-06 -9.7587451e-07 -1 6.8118696e-12
0.50941133 0.059496649 0.10000014 9013641 2.3605401e-06 -7.8920937e-07 -1 5.8052014e-12
0.50941133 0.05465088 0.10000014 9013641 2.5396268e-06 -4.745178e-07 -1 5.4798405e-12
0.50941133 0.04980512 0.10000014 9013641 2.7973304e-06 -1.3672782e-07 -1 5.2196702e-12
0.50941133 0.044959351 0.10000014 9013641 2.7955159e-06 3.524145e-07 -1 5.0952922e-12
0.50941133 0.040113583 0.10000014 9013641 2.7514159e-06 9.2567188e-07 -1 4.5875226e-12
0.50941133 0.035267815 0.10000014 9013641 2.5273218e-06 1.43999e-06 -1 3.749067e-12
0.50941133 0.030422047 0.10000014 9013641 2.3603582e-06 1.6378395e-06 -1 3.238047e-12
0.50941133 0.025576279 0.10000014 9013641 2.4251628e-06 1.5341367e-06 -1 2.7820812e-12
0.50941133 0.020730512 0.10000014 9013641 2.436235e-06 1.2990615e-06 -1 2.7730155e-12
0.50941133 0.014269488 0.10000014 9013641 2.5304546e-06 9.5006931e-07 -1 2.7032469e-12
0.50941133 0.0094237207 0.10000014 9013641 2.5007578e-06 6.8401738e-07 -1 2.7583788e-12
0.50941133 0.0045779534 0.10000014 9013641 2.47924e-06 3.6186026e-07 -1 2.7526499e-12
0.50941133 -0.00026781484 0.10000014 9013641 2.4196922e-06 9.5086072e-08 -1 2.6523289e-12
0.50941133 -0.0051135812 0.10000014 9013641 2.4550493e-06 -1.3598768e-07 -1 2.8074804e-12
0.50941133 -0.0099593494 0.10000014 9013641 2.5128336e-06 -5.4036133e-07 -1 2.7904126e-12
0.50941133 -0.014805118 0.10000014 9013641 2.446284e-06 -8.6118365e-07 -1 2.7217616e-12
0.50941133 -0.019650886 0.10000014 9013641 2.3688578e-06 -1.0983248e-06 -1 2.6893845e-12
0.50941133 -0.024496654 0.10000014 9013641 2.3197101e-06 -1.2655236e-06 -1 2.5942434e-12
0.50941133 -0.029342419 0.10000014 9013641 2.3722766e-06 -1.47975e-06 -1 2.7904643e-12
0.50941133 -0.034188189 0.10000014 9013641 2.567994e-06 -1.341137e-06 -1 3.5761173e-12
0.50941133 -0.040649213 0.10000014 9013641 2.7979052e-06 -7.4666366e-07 -1 4.3272321e-12
0.50941133 -0.045494981 0.10000014 9013641 2.9572336e-06 -3.5598305e-07 -1 4.535072e-12
0.50941133 -0.050340749 0.10000014 9013641 2.9480527e-06 -7.0798429e-09 -1 4.7713647e-12
0.50941133 -0.05518651 0.10000014 9013641 2.8628217e-06 4.7177036e-07 -1 5.1110921e-12
0.50941133 -0.060032278 0.10000014 9013641 2.9501937e-06 8.3636144e-07 -1 5.9506107e-12
0.50941133 -0.064878054 0.10000014 9013641 3.0405929e-06 1.2259304e-06 -1 6.4354021e-12
0.50941133 -0.069723815 0.10000014 9013641 3.1950356e-06 1.2313226e-06 -1 6.3110242e-12
0.50941133 -0.074569583 0.10000014 9013641 3.0866552e-06 9.8552198e-07 -1 6.7553875e-12
0.50941133 -0.079415351 0.10000014 9013641 2.1997632e-06 9.8713792e-07 -1 7.7135668e-12
0.50941133 -0.085876375 0.10000014 9013641 2.6041878e-06 -1.7056306e-07 -1 9.7885927e-12
0.50456554 0.095032282 0.10000017 9013641 7.2292851e-06 4.4530098e-06 -1 1.1852625e-11
0.5045656 0.090186521 0.10000017 9013641 3.6998588e-06 1.5419345e-06 -1 9.8664852e-12
0.50456554 0.085340746 0.10000017 9013641 2.7887465e-06 6.2898641e-07 -1 8.984838e-12
0.50456554 0.080494978 0.10000017 9013641 2.4618205e-06 1.4812498e-07 -1 8.4858596e-12
0.50456554 0.075649209 0.10000017 9013641 2.4893691e-06 -6.198029e-07 -1 8.0390234e-12
0.50456554 0.069188185 0.10000017 9013641 2.6298769e-06 -1.0062704e-06 -1 6.8093964e-12
0.50456554 0.064342417 0.10000017 9013641 2.6251039e-06 -8.3859919e-07 -1 6.5195462e-12
0.50456554 0.059496656 0.10000017 9013641 2.7129624e-06 -5.761629e-07 -1 5.9649421e-12
0.50456554 0.054650888 0.10000017 9013641 2.7056169e-06 -2.3374433e-07 -1 5.1979632e-12
0.50456554 0.04980512 0.10000017 9013641 2.8428578e-06 -4.0587807e-08 -1 5.0295328e-12
0.50456554 0.044959351 0.10000017 9013641 2.8489883e-06 2.3545783e-07 -1 4.9069269e-12
0.50456554 0.040113583 0.10000017 9013641 2.7804929e-06 8.6531867e-07 -1 4.4298384e-12
0.50456554 0.035267815 0.10000017 9013641 2.7367548e-06 1.1174375e-06 -1 4.1412559e-12
0.50456554 0.030422047 0.10000017 9013641 2.7358572e-06 1.4776219e-06 -1 3.5180608e-12
0.50456554 0.025576279 0.10000017 9013641 2.7243511e-06 1.560844e-06 -1 2.798421e-12
0.50456554 0.020730512 0.10000017 9013641 2.763262e-06 1.2790016e-06 -1 2.7318547e-12
0.50456554 0.014269488 0.10000017 9013641 2.7352169e-06 9.7533928e-07 -1 2.7650779e-12
0.50456554 0.0094237207 0.10000017 9013641 2.7332756e-06 6.8159022e-07 -1 2.8488564e-12
0.50456554 0.0045779534 0.10000017 9013641 2.7400886e-06 3.225378e-07 -1 2.8190093e-12
0.50456554 -0.00026781484 0.10000017 9013641 2.6738755e-06 9.2022084e-08 -1 2.7140644e-12
0.50456554 -0.0051135812 0.10000017 9013641 2.5894467e-06 -1.7616155e-07 -1 2.8409204e-12
0.50456554 -0.0099593494 0.10000017 9013641 2.6026721e-06 -6.0048438e-07 -1 2.9256458e-12
0.50456554 -0.014805118 0.10000017 9013641 2.5864208e-06 -8.9903142e-07 -1 2.8126499e-12
0.50456554 -0.019650886 0.10000017 9013641 2.5849019e-06 -1.1516435e-06 -1 2.7514319e-12
0.50456554 -0.02449665 0.10000017 9013641 2.5696443e-06 -1.4226665e-06 -1 2.7669863e-12
0.50456554 -0.029342419 0.10000017 9013641 2.5976508e-06 -1.4866831e-06 -1 2.8391972e-12
0.50456554 -0.034188189 0.10000017 9013641 2.6986161e-06 -1.0998789e-06 -1 3.9999518e-12
0.50456554 -0.040649213 0.10000017 9013641 2.7453063e-06 -7.24568e-07 -1 4.2724322e-12
0.50456554 -0.045494981 0.10000017 9013641 2.815789e-06 -3.7556529e-07 -1 4.3636735e-12
0.50456554 -0.050340749 0.10000017 9013641 2.8991815e-06 -9.0792412e-08 -1 4.5039142e-12
0.50456554 -0.055186518 0.10000017 9013641 2.9173059e-06 3.9669627e-07 -1 5.0493889e-12
0.50456554 -0.060032293 0.10000017 9013641 3.0415624e-06 8.775757e-07 -1 5.9022782e-12
0.50456554 -0.064878054 0.10000017 9013641 2.9757282e-06 1.2189001e-06 -1 6.2557377e-12
0.50456554 -0.069723815 0.10000017 9013641 3.0569151e-06 1.1976002e-06 -1 6.0141328e-12
0.50456554 -0.074569583 0.10000017 9013641 2.8137017e-06 8.3359771e-07 -1 6.8001225e-12
0.50456554 -0.079415351 0.10000017 9013641 2.5379393e-06 2.8634329e-07 -1 7.4866571e-12
0.50456554 -0.085876383 0.10000017 9013641 2.4360481e-06 -3.3092829e-07 -1 8.579186e-12
0.5045656 -0.090722159 0.10000017 9013641 3.0093031e-06 -1.1170143e-06 -1 9.0828534e-12
0.50456554 -0.095567912 0.10000017 9013641 4.0687692e-06 -2.7036426e-06 -1 1.0206886e-11
0.4997198 0.09987805 0.10000018 9013641 7.8514877e-06 6.254093e-06 -1 1.1733004e-11
0.4997198 0.09503229 0.10000018 9013641 4.5733659e-06 1.8997729e-06 -1 1.0832198e-11
0.4997198 0.090186521 0.10000018 9013641 2.7918661e-06 8.1400157e-07 -1 9.2298287e-12
0.4997198 0.085340753 0.10000018 9013641 2.6366617e-06 6.7128792e-07 -1 8.5853711e-12
0.4997198 0.080494978 0.10000018 9013641 2.3928771e-06 3.0400153e-07 -1 8.355162e-12
0.4997198 0.075649209 0.10000018 9013641 2.4072353e-06 -3.9027628e-07 -1 7.8148338e-12
0.4997198 0.069188185 0.10000018 9013641 2.5186903e-06 -8.4774143e-07 -1 6.4820189e-12
0.4997198 0.064342424 0.10000018 9013641 2.7463382e-06 -7.2127256e-07 -1 6.0809999e-12
0.4997198 0.059496656 0.10000018 9013641 2.8006418e-06 -4.448039e-07 -1 5.6743993e-12
0.4997198 0.054650888 0.10000018 9013641 2.8000952e-06 -2.3366026e-07 -1 5.4450988e-12
0.4997198 0.04980512 0.10000018 9013641 2.8625843e-06 9.9280882e-08 -1 4.8692083e-12
0.4997198 0.044959351 0.10000018 9013641 3.0335871e-06 2.8083656e-07 -1 4.6464425e-12
0.4997198 0.040113583 0.10000018 9013641 3.1377301e-06 7.5674518e-07 -1 4.4059357e-12
0.4997198 0.035267815 0.10000018 9013641 3.0997874e-06 1.0548981e-06 -1 4.3667249e-12
0.4997198 0.030422047 0.10000018 9013641 2.9086443e-06 1.3834931e-06 -1 4.007262e-12
0.4997198 0.02557628 0.10000006 9013641 2.8342336e-06 1.5911775e-06 -1 2.8157537e-12
0.4997198 0.020730512 0.10000006 9013641 2.8366865e-06 1.2436431e-06 -1 2.7489812e-12
0.4997198 0.014269488 0.10000006 9013641 2.7412068e-06 9.0160398e-07 -1 2.8088424e-12
0.4997198 0.0094237197 0.10000006 9013641 2.6262794e-06 6.8379961e-07 -1 2.8508901e-12
0.4997198 0.0045779515 0.10000006 9013641 2.5888864e-06 3.3705763e-07 -1 2.8442654e-12
0.4997198 -0.00026781671 0.10000006 9013641 2.5875709e-06 1.0821792e-07 -1 2.8878848e-12
0.4997198 -0.0051135849 0.10000006 9013641 2.5133875e-06 -1.4969349e-07 -1 3.0112772e-12
0.4997198 -0.0099593531 0.10000006 9013641 2.4825652e-06 -6.4766596e-07 -1 2.9806557e-12
0.4997198 -0.014805121 0.10000006 9013641 2.5542383e-06 -8.5120161e-07 -1 2.8505269e-12
0.4997198 -0.01965089 0.10000006 9013641 2.6301298e-06 -1.1115926e-06 -1 2.7888165e-12
0.4997198 -0.024496654 0.10000006 9013641 2.6122632e-06 -1.4438293e-06 -1 2.86361e-12
0.4997198 -0.029342422 0.10000018 9013641 2.7646022e-06 -1.3834397e-06 -1 3.4517892e-12
0.4997198 -0.034188189 0.10000018 9013641 2.8782722e-06 -1.0706161e-06 -1 4.0649246e-12
0.4997198 -0.040649213 0.10000018 9013641 2.9047526e-06 -5.6599521e-07 -1 4.3046352e-12
0.4997198 -0.045494981 0.10000018 9013641 2.8599904e-06 -3.4776491e-07 -1 4.3854551e-12
0.4997198 -0.050340749 0.10000018 9013641 2.8511579e-06 5.1014432e-08 -1 4.6661564e-12
0.4997198 -0.055186518 0.10000018 9013641 2.9509381e-06 6.3900069e-07 -1 5.018598e-12
0.4997198 -0.060032293 0.10000018 9013641 2.9927294e-06 8.663456e-07 -1 5.4405291e-12
0.4997198 -0.064878061 0.10000018 9013641 2.890112e-06 1.1299361e-06 -1 5.752762e-12
0.4997198 -0.069723815 0.10000018 9013641 2.6444047e-06 1.0880598e-06 -1 6.0549113e-12
0.4997198 -0.074569583 0.10000006 9013641 2.5006914e-06 7.0247086e-07 -1 6.6929292e-12
0.4997198 -0.079415351 0.10000006 9013641 2.2803931e-06 6.8102004e-08 -1 7.4948563e-12
0.4997198 -0.085876383 0.10000006 9013641 2.2418819e-06 -5.2442437e-07 -1 8.0534442e-12
0.4997198 -0.090722159 0.10000006 9013641 2.3950799e-06 -8.4517109e-07 -1 8.1127743e-12
0.4997198 -0.095567919 0.10000018 9013641 3.0883145e-06 -1.6737038e-06 -1 9.7410474e-12
0.4997198 -0.10041368 0.10000018 9013641 5.2273499e-06 -4.2735273e-06 -1 1.1286667e-11
0.49487403 0.10472381 0.1000002 9013641 8.5508827e-06 7.7953582e-06 -1 1.3400427e-11
0.49487403 0.09987805 0.10000008 9013641 4.659858e-06 2.6884807e-06 -1 1.2064172e-11
0.49487403 0.09503229 0.10000008 9013641 3.1917104e-06 8.7556123e-07 -1 9.3765698e-12
0.49487403 0.090186521 0.10000008 9013641 2.7366516e-06 4.8694164e-07 -1 8.1518932e-12
0.49487403 0.085340753 0.10000008 9013641 2.5634142e-06 3.6768768e-07 -1 8.1470369e-12
0.49487403 0.080494978 0.10000008 9013641 2.1862531e-06 1.9255135e-07 -1 8.1578902e-12
0.49487403 0.075649209 0.10000008 9013641 2.1899671e-06 -8.9718718e-08 -1 7.8281583e-12
0.49487403 0.069188192 0.10000008 9013641 2.5673319e-06 -5.7902071e-07 -1 6.6109201e-12
0.49487403 0.064342424 0.10000008 9013641 2.76277e-06 -5.3531335e-07 -1 6.2615169e-12
0.49487403 0.059496656 0.10000008 9013641 2.8681682e-06 -3.6264271e-07 -1 5.7992417e-12
0.49487403 0.054650888 0.10000008 9013641 2.9015662e-06 -1.0321997e-07 -1 5.5939346e-12
0.49487403 0.04980512 0.10000008 9013641 3.0262847e-06 1.651146e-07 -1 5.0309258e-12
0.49487403 0.044959351 0.10000008 9013641 3.1125012e-06 4.1796514e-07 -1 4.9140054e-12
0.49487403 0.040113583 0.10000008 9013641 3.1336156e-06 7.8327889e-07 -1 4.7313134e-12
0.49487403 0.035267815 0.10000008 9013641 3.129652e-06 1.0170427e-06 -1 4.6051821e-12
0.49487403 0.030422049 0.10000008 9013641 3.0195363e-06 1.3245285e-06 -1 3.9032371e-12
0.49487403 0.02557628 0.10000008 9013641 2.8393563e-06 1.5494252e-06 -1 2.9064379e-12
0.49487403 0.020730512 0.10000008 9013641 2.7343983e-06 1.269847e-06 -1 2.9543085e-12
0.49487403 0.014269488 0.10000008 9013641 2.5907445e-06 8.3519785e-07 -1 2.8242244e-12
0.49487403 0.0094237197 0.10000008 9013641 2.44734e-06 6.3296659e-07 -1 2.7966891e-12
0.49487403 0.0045779515 0.10000008 9013641 2.2567185e-06 2.9635416e-07 -1 2.7488174e-12
0.49487403 -0.00026781671 0.10000008 9013641 2.2852348e-06 8.5055696e-08 -1 2.8765313e-12
0.49487403 -0.0051135849 0.10000008 9013641 2.2758393e-06 -2.5171761e-07 -1 2.9218672e-12
0.49487403 -0.0099593531 0.10000008 9013641 2.275897e-06 -5.8100824e-07 -1 2.9362437e-12
0.49487403 -0.014805121 0.10000008 9013641 2.3767695e-06 -8.273887e-07 -1 2.8550595e-12
0.49487403 -0.01965089 0.10000008 9013641 2.4230173e-06 -1.1453756e-06 -1 2.8821383e-12
0.49487403 -0.024496658 0.10000008 9013641 2.4961594e-06 -1.3794698e-06 -1 3.1495303e-12
0.49487403 -0.029342426 0.10000008 9013641 2.7249168e-06 -1.3015808e-06 -1 3.569156e-12
0.49487403 -0.034188196 0.10000008 9013641 2.800318e-06 -1.044045e-06 -1 4.258574e-12
0.49487403 -0.040649213 0.10000008 9013641 2.8318493e-06 -6.5490531e-07 -1 4.5481123e-12
0.49487403 -0.045494981 0.10000008 9013641 2.7657818e-06 -4.0627555e-07 -1 4.6383175e-12
0.49487403 -0.050340749 0.10000008 9013641 2.8968996e-06 1.0587471e-07 -1 4.9814319e-12
0.49487403 -0.055186525 0.10000008 9013641 2.9565829e-06 6.0638979e-07 -1 5.1174906e-12
0.49487403 -0.060032293 0.10000008 9013641 2.9159776e-06 8.7415475e-07 -1 5.5072765e-12
0.49487403 -0.064878061 0.10000008 9013641 2.7279154e-06 9.5094151e-07 -1 6.1052149e-12
0.49487403 -0.069723822 0.10000008 9013641 2.5015004e-06 7.862206e-07 -1 6.2580978e-12
0.49487403 -0.074569583 0.10000008 9013641 2.1492199e-06 4.0746951e-07 -1 7.1319751e-12
0.49487403 -0.079415359 0.10000008 9013641 2.1324142e-06 -4.7065505e-08 -1 7.7967936e-12
0.49487403 -0.08587639 0.10000008 9013641 1.924345e-06 -6.3660184e-07 -1 7.4912871e-12
0.49487403 -0.090722159 0.10000008 9013641 1.9772472e-06 -7.0758631e-07 -1 7.2394092e-12
0.49487403 -0.095567919 0.10000008 9013641 2.3098644e-06 -1.2094171e-06 -1 8.5103521e-12
0.49487403 -0.10041368 0.10000008 9013641 3.1877169e-06 -2.4280807e-06 -1 1.0378685e-11
0.49487403 -0.10525945 0.1000002 9013641 6.583391e-06 -6.6876537e-06 -1 1.1282719e-11
0.49002826 0.10956959 0.10000022 9013641 7.853866e-06 7.7798386e-06 -1 1.4123398e-11
0.49002826 0.10472382 0.1000001 9013641 4.683573e-06 3.3476147e-06 -1 1.3157069e-11
0.49002826 0.099878058 0.1000001 9013641 3.1090242e-06 9.3790999e-07 -1 1.1574686e-11
0.49002826 0.09503229 0.1000001 9013641 2.9311748e-06 5.7523692e-07 -1 9.5964807e-12
0.49002826 0.090186521 0.1000001 9013641 2.6840023e-06 2.7540065e-07 -1 7.8934255e-12
0.49002826 0.085340753 0.1000001 9013641 2.4593226e-06 1.5728264e-07 -1 7.7490393e-12
0.49002826 0.080494985 0.1000001 9013641 2.363611e-06 2.1684774e-07 -1 7.4834895e-12
0.49002826 0.075649217 0.1000001 9013641 2.4613453e-06 7.3571961e-08 -1 7.3887754e-12
0.49002826 0.069188192 0.1000001 9013641 2.5924394e-06 -2.5482964e-07 -1 6.8155442e-12
0.49002826 0.064342424 0.1000001 9013641 2.7820049e-06 -4.417096e-07 -1 6.2103525e-12
0.49002826 0.059496656 0.1000001 9013641 3.0046128e-06 -3.2885239e-07 -1 5.6214651e-12
0.49002826 0.054650888 0.1000001 9013641 3.074126e-06 -1.0711111e-07 -1 5.4893342e-12
0.49002826 0.04980512 0.1000001 9013641 3.0592403e-06 1.5995633e-07 -1 5.2970154e-12
0.49002826 0.044959351 0.1000001 9013641 2.9474297e-06 3.8631828e-07 -1 5.1884252e-12
0.49002826 0.040113583 0.1000001 9013641 2.8051443e-06 7.5634028e-07 -1 4.8494334e-12
0.49002826 0.035267815 0.1000001 9013641 2.7069452e-06 9.897434e-07 -1 4.4693598e-12
0.49002826 0.030422049 0.1000001 9013641 2.6948503e-06 1.1951578e-06 -1 3.7752965e-12
0.49002826 0.02557628 0.1000001 9013641 2.5801903e-06 1.3263169e-06 -1 3.397671e-12
0.49002826 0.020730512 0.1000001 9013641 2.5751945e-06 1.2870199e-06 -1 3.0468514e-12
0.49002826 0.014269488 0.1000001 9013641 2.6366695e-06 7.6036861e-07 -1 2.9124379e-12
0.49002826 0.0094237197 0.1000001 9013641 2.8247284e-06 5.0928628e-07 -1 2.8209334e-12
0.49002826 0.0045779515 0.1000001 9013641 2.9075043e-06 2.0616046e-07 -1 2.9049814e-12
0.49002826 -0.00026781671 0.1000001 9013641 2.9064897e-06 -9.7354114e-10 -1 2.9284524e-12
0.49002826 -0.0051135849 0.1000001 9013641 2.7781964e-06 -2.3571056e-07 -1 2.9515327e-12
0.49002826 -0.0099593531 0.1000001 9013641 2.6102346e-06 -5.9780183e-07 -1 3.0277911e-12
0.49002826 -0.014805121 0.1000001 9013641 2.4062122e-06 -8.2225142e-07 -1 2.9801274e-12
0.49002826 -0.01965089 0.1000001 9013641 2.3178029e-06 -1.1445846e-06 -1 2.9788082e-12
0.49002826 -0.024496658 0.1000001 9013641 2.2983129e-06 -1.2569046e-06 -1 3.2599058e-12
0.49002826 -0.029342426 0.1000001 9013641 2.3413652e-06 -1.0726769e-06 -1 3.5875975e-12
0.49002826 -0.034188196 0.1000001 9013641 2.3144214e-06 -8.4255407e-07 -1 4.1665937e-12
0.49002826 -0.04064922 0.1000001 9013641 2.5244483e-06 -5.8217978e-07 -1 4.5932702e-12
0.49002826 -0.045494989 0.1000001 9013641 2.7705776e-06 -1.9087932e-07 -1 5.0121274e-12
0.49002826 -0.050340757 0.1000001 9013641 2.8986394e-06 2.9180606e-07 -1 5.3683555e-12
0.49002826 -0.055186525 0.1000001 9013641 2.9184168e-06 6.0210806e-07 -1 5.4061473e-12
0.49002826 -0.060032293 0.1000001 9013641 2.7293397e-06 8.2526924e-07 -1 5.6112177e-12
0.49002826 -0.064878061 0.1000001 9013641 2.5490187e-06 8.0551075e-07 -1 6.2957712e-12
0.49002826 -0.06972383 0.1000001 9013641 2.227179e-06 4.2404577e-07 -1 6.6867961e-12
0.49002826 -0.07456959 0.1000001 9013641 2.1612093e-06 1.5167676e-07 -1 7.1338929e-12
0.49002826 -0.079415366 0.1000001 9013641 2.0232894e-06 -1.5977636e-07 -1 7.3975045e-12
0.49002826 -0.08587639 0.1000001 9013641 2.0028185e-06 -5.2372184e-07 -1 6.8166067e-12
0.49002826 -0.090722159 0.1000001 9013641 2.2120869e-06 -6.7974599e-07 -1 7.5890266e-12
0.49002826 -0.095567919 0.1000001 9013641 2.1386816e-06 -9.976909e-07 -1 8.8359814e-12
0.49002826 -0.10041369 0.1000001 9013641 2.3515565e-06 -1.7147345e-06 -1 1.068184e-11
0.49002826 -0.10525945 0.1000001 9013641 3.7778211e-06 -4.077338e-06 -1 1.2045794e-11
0.49002826 -0.11010523 0.10000022 9013641 6.6588027e-06 -9.7171469e-06 -1 1.2809525e-11
0.48518249 0.10956959 0.10000011 9013641 5.4928887e-06 4.5490674e-06 -1 1.2602321e-11
0.48518249 0.10472383 0.10000011 9013641 3.8292474e-06 1.6416116e-06 -1 1.1770349e-11
0.48518249 0.099878058 0.10000011 9013641 3.2721039e-06 5.3077565e-07 -1 1.0250607e-11
0.48518249 0.09503229 0.10000011 9013641 3.0147219e-06 1.6454034e-07 -1 8.9555299e-12
0.48518249 0.090186521 0.10000011 9013641 2.7500321e-06 1.4460277e-07 -1 7.8025407e-12
0.48518249 0.085340753 0.10000011 9013641 2.5580214e-06 1.5024956e-08 -1 6.9055443e-12
0.48518249 0.080494992 0.10000011 9013641 2.5426618e-06 2.4432518e-07 -1 7.0185251e-12
0.48518249 0.075649217 0.10000011 9013641 2.6211821e-06 2.6793014e-08 -1 7.0637996e-12
0.48518249 0.069188192 0.10000011 9013641 2.5464831e-06 -2.9990287e-07 -1 6.5699815e-12
0.48518249 0.064342424 0.10000011 9013641 2.5737361e-06 -3.3305915e-07 -1 6.0099794e-12
0.48518249 0.059496656 0.10000011 9013641 2.770181e-06 -2.8407072e-07 -1 5.6092947e-12
0.48518249 0.054650895 0.10000011 9013641 2.8567404e-06 -8.5878611e-08 -1 5.6302575e-12
0.48518249 0.04980512 0.10000011 9013641 2.7631547e-06 1.6875744e-07 -1 5.5867377e-12
0.48518249 0.044959351 0.10000011 9013641 2.6658347e-06 2.7072269e-07 -1 5.6030089e-12
0.48518249 0.040113583 0.10000011 9013641 2.478592e-06 6.5576705e-07 -1 4.900926e-12
0.48518249 0.035267815 0.10000011 9013641 2.5799284e-06 1.0558457e-06 -1 4.0465352e-12
0.48518249 0.030422049 0.10000011 9013641 2.6557702e-06 1.2017063e-06 -1 3.6855866e-12
0.48518249 0.02557628 0.10000011 9013641 2.6737619e-06 1.2876058e-06 -1 3.6015032e-12
0.48518249 0.020730512 0.10000011 9013641 2.7073672e-06 1.4092029e-06 -1 2.9941728e-12
0.48518249 0.014269488 0.10000011 9013641 2.9939381e-06 9.1127936e-07 -1 2.8450642e-12
0.48518249 0.0094237197 0.10000011 9013641 3.099218e-06 5.5484526e-07 -1 2.9098458e-12
0.48518249 0.0045779515 0.10000011 9013641 3.1542706e-06 2.3870268e-07 -1 3.0050274e-12
0.48518249 -0.00026781671 0.10000011 9013641 3.1625711e-06 -9.3628799e-08 -1 2.99887e-12
0.48518249 -0.0051135849 0.10000011 9013641 3.1120956e-06 -4.2709729e-07 -1 2.9319251e-12
0.48518249 -0.0099593531 0.10000011 9013641 2.9712257e-06 -7.2009283e-07 -1 2.953342e-12
0.48518249 -0.014805121 0.10000011 9013641 2.7624021e-06 -1.0116172e-06 -1 3.0608838e-12
0.48518249 -0.01965089 0.10000011 9013641 2.5723273e-06 -1.3153283e-06 -1 3.0449926e-12
0.48518249 -0.024496658 0.10000011 9013641 2.5019897e-06 -1.3888583e-06 -1 3.2815731e-12
0.48518249 -0.029342426 0.10000011 9013641 2.462253e-06 -1.1138512e-06 -1 3.6752064e-12
0.48518249 -0.034188196 0.10000011 9013641 2.2574166e-06 -8.9155401e-07 -1 3.7938953e-12
0.48518249 -0.04064922 0.10000011 9013641 2.0583873e-06 -4.5103874e-07 -1 4.3561756e-12
0.48518249 -0.045494989 0.10000011 9013641 2.3842833e-06 6.4547685e-08 -1 5.1380974e-12
0.48518249 -0.050340757 0.10000011 9013641 2.5220663e-06 2.3761525e-07 -1 5.3947788e-12
0.48518249 -0.055186532 0.10000011 9013641 2.5844677e-06 5.1292074e-07 -1 5.5410893e-12
0.48518249 -0.060032293 0.10000011 9013641 2.4765343e-06 6.0904586e-07 -1 5.4967354e-12
0.48518249 -0.064878061 0.10000011 9013641 2.3838363e-06 6.5298576e-07 -1 6.246097e-12
0.48518249 -0.06972383 0.10000011 9013641 2.354953e-06 4.4205487e-07 -1 6.664815e-12
0.48518249 -0.074569605 0.10000011 9013641 2.3023319e-06 -2.1332239e-08 -1 6.5876857e-12
0.48518249 -0.079415374 0.10000011 9013641 2.1017274e-06 -3.5811325e-07 -1 6.8120032e-12
0.48518249 -0.08587639 0.10000011 9013641 2.1691051e-06 -3.7439725e-07 -1 6.4851961e-12
0.48518249 -0.090722159 0.10000011 9013641 2.3369e-06 -6.3627607e-07 -1 7.4170375e-12
0.48518249 -0.095567919 0.10000011 9013641 2.5656548e-06 -1.017436e-06 -1 8.5905935e-12
0.48518249 -0.10041369 0.10000011 9013641 2.8618658e-06 -1.5485039e-06 -1 9.9606851e-12
0.48518249 -0.10525946 0.10000011 9013641 3.3669787e-06 -2.9899215e-06 -1 1.0824012e-11
0.48518249 -0.11010523 0.10000011 9013641 5.4130069e-06 -6.6158632e-06 -1 1.1684593e-11
0.48518249 -0.114951 0.10000023 9013641 8.4915282e-06 -1.1660999e-05 -1 1.1842018e-11
0.48033673 0.11441536 0.10000014 9013641 6.9523212e-06 7.4375271e-06 -1 1.0428742e-11
0.48033673 0.1095696 0.10000014 9013641 4.7058793e-06 2.8031423e-06 -1 1.006823e-11
0.48033673 0.10472383 0.10000014 9013641 3.4277134e-06 1.1315317e-06 -1 9.3071401e-12
0.48033673 0.099878058 0.10000014 9013641 3.0475301e-06 1.9371116e-07 -1 8.6840743e-12
0.48033673 0.09503229 0.10000014 9013641 3.1234215e-06 -6.6963812e-09 -1 8.0293619e-12
0.48033673 0.090186521 0.10000014 9013641 3.0704634e-06 -1.6967172e-07 -1 7.1160317e-12
0.48033673 0.085340753 0.10000014 9013641 2.860553e-06 -1.9759052e-07 -1 6.4912437e-12
0.48033673 0.080494985 0.10000014 9013641 2.754027e-06 1.942952e-07 -1 6.297891e-12
0.48033673 0.075649224 0.10000014 9013641 2.596232e-06 -5.6063694e-08 -1 6.2570183e-12
0.48033673 0.069188192 0.10000014 9013641 2.6608261e-06 -1.8340425e-07 -1 5.8299702e-12
0.48033673 0.064342424 0.10000014 9013641 2.8419311e-06 -1.5439214e-07 -1 5.7476237e-12
0.48033673 0.059496656 0.10000014 9013641 2.9923256e-06 -1.0271512e-07 -1 5.3820303e-12
0.48033673 0.054650895 0.10000014 9013641 3.0680069e-06 -1.598748e-07 -1 5.4002397e-12
0.48033673 0.04980512 0.10000014 9013641 2.8881329e-06 2.8274519e-08 -1 5.3137525e-12
0.48033673 0.044959351 0.10000014 9013641 2.6826044e-06 2.228645e-07 -1 5.0730266e-12
0.48033673 0.040113583 0.10000014 9013641 2.8125057e-06 6.3584781e-07 -1 4.3420103e-12
0.48033673 0.035267815 0.10000014 9013641 2.8164156e-06 1.0913964e-06 -1 3.8444157e-12
0.48033673 0.030422049 0.10000014 9013641 2.8474431e-06 1.3163943e-06 -1 3.5612292e-12
0.48033673 0.02557628 0.10000014 9013641 2.892624e-06 1.2821492e-06 -1 3.521681e-12
0.48033673 0.020730512 0.10000002 9013641 2.8603201e-06 1.3504001e-06 -1 2.8567331e-12
0.48033673 0.014269488 0.10000002 9013641 2.9092632e-06 1.0951794e-06 -1 2.8426534e-12
0.48033673 0.0094237188 0.10000002 9013641 3.0612339e-06 6.5035704e-07 -1 2.8683646e-12
0.48033673 0.0045779496 0.10000002 9013641 3.1825145e-06 2.3342214e-07 -1 2.8659963e-12
0.48033673 -0.00026781857 0.10000002 9013641 3.178219e-06 -1.314377e-07 -1 2.8419237e-12
0.48033673 -0.0051135868 0.10000002 9013641 3.0983645e-06 -5.9824345e-07 -1 2.6675877e-12
0.48033673 -0.009959355 0.10000002 9013641 2.9338646e-06 -8.4684569e-07 -1 2.8558907e-12
0.48033673 -0.014805125 0.10000002 9013641 2.7913145e-06 -1.1717138e-06 -1 2.9335978e-12
0.48033673 -0.01965089 0.10000002 9013641 2.7559529e-06 -1.3986145e-06 -1 2.9465686e-12
0.48033673 -0.024496658 0.10000014 9013641 2.7098279e-06 -1.4727185e-06 -1 3.2189624e-12
0.48033673 -0.029342426 0.10000014 9013641 2.6207015e-06 -1.2234367e-06 -1 3.6163303e-12
0.48033673 -0.034188196 0.10000014 9013641 2.5340421e-06 -1.0717619e-06 -1 3.6541217e-12
0.48033673 -0.04064922 0.10000014 9013641 2.5701236e-06 -3.9648077e-07 -1 4.2229826e-12
0.48033673 -0.045494989 0.10000014 9013641 2.4186668e-06 2.1169176e-07 -1 4.6457963e-12
0.48033673 -0.050340757 0.10000014 9013641 2.5243869e-06 4.124355e-07 -1 5.0907043e-12
0.48033673 -0.055186525 0.10000014 9013641 2.6827431e-06 5.6512363e-07 -1 5.3427037e-12
0.48033673 -0.060032293 0.10000014 9013641 2.7271283e-06 5.0754602e-07 -1 5.522134e-12
0.48033673 -0.064878061 0.10000014 9013641 2.5647062e-06 5.0641341e-07 -1 5.7615523e-12
0.48033673 -0.06972383 0.10000014 9013641 2.3469304e-06 2.9170124e-07 -1 5.8602346e-12
0.48033673 -0.074569605 0.10000014 9013641 2.1850094e-06 -5.8617758e-08 -1 6.0210079e-12
0.48033673 -0.079415374 0.10000014 9013641 2.219818e-06 -5.8209042e-07 -1 5.9606877e-12
0.48033673 -0.08587639 0.10000014 9013641 2.3649779e-06 -1.8702231e-07 -1 6.4227998e-12
0.48033673 -0.090722159 0.10000014 9013641 2.5641768e-06 -3.8683069e-07 -1 7.2806596e-12
0.48033673 -0.095567919 0.10000014 9013641 2.6108858e-06 -8.6096037e-07 -1 7.9817663e-12
0.48033673 -0.10041369 0.10000014 9013641 2.9461678e-06 -1.2661152e-06 -1 8.7128794e-12
0.48033673 -0.10525947 0.10000014 9013641 3.7635789e-06 -2.3652451e-06 -1 9.3319944e-12
0.48033673 -0.11010523 0.10000014 9013641 5.0621757e-06 -4.3734985e-06 -1 9.5497932e-12
0.48033673 -0.114951 0.10000014 9013641 7.0457636e-06 -8.1010839e-06 -1 1.0011847e-11
0.47549096 0.11441536 0.10000003 9013641 5.7707693e-06 3.8467906e-06 -1 7.8136343e-12
0.47549096 0.1095696 0.10000003 9013641 4.1183721e-06 1.0994598e-06 -1 7.4940479e-12
0.47549096 0.10472383 0.10000003 9013641 3.495689e-06 5.0043656e-07 -1 7.6676486e-12
0.47549096 0.099878065 0.10000003 9013641 3.3385343e-06 1.2772736e-07 -1 7.5508532e-12
0.47549096 0.09503229 0.10000003 9013641 3.1741349e-06 -6.4534163e-08 -1 7.2059212e-12
0.47549096 0.090186521 0.10000003 9013641 3.1356092e-06 -2.4837115e-07 -1 6.6040758e-12
0.47549096 0.085340753 0.10000003 9013641 3.0865551e-06 -2.0704887e-07 -1 6.2407948e-12
0.47549096 0.080494992 0.10000003 9013641 2.9627483e-06 5.2149456e-08 -1 5.8322748e-12
0.47549096 0.075649224 0.10000003 9013641 2.9099403e-06 -1.2720915e-08 -1 5.780152e-12
0.47549096 0.069188192 0.10000003 9013641 3.0188296e-06 -1.1810249e-07 -1 5.5125626e-12
0.47549096 0.064342424 0.10000003 9013641 3.0742078e-06 -1.107306e-07 -1 5.5091452e-12
0.47549096 0.059496656 0.10000003 9013641 2.9960099e-06 -1.9109778e-07 -1 5.1427699e-12
0.47549096 0.054650895 0.10000003 9013641 2.8449706e-06 -2.1231314e-07 -1 4.8656769e-12
0.47549096 0.049805127 0.10000003 9013641 2.958536e-06 -1.8803725e-08 -1 4.4957653e-12
0.47549096 0.044959351 0.10000003 9013641 2.9414839e-06 3.2863036e-07 -1 4.333164e-12
0.47549096 0.040113583 0.10000003 9013641 2.9635187e-06 7.4920547e-07 -1 4.1360335e-12
0.47549096 0.035267819 0.10000003 9013641 2.9591299e-06 1.0138308e-06 -1 3.8403894e-12
0.47549096 0.030422051 0.10000003 9013641 2.8332927e-06 1.2719883e-06 -1 3.5492353e-12
0.47549096 0.025576282 0.10000003 9013641 2.8130619e-06 1.3303658e-06 -1 3.2093729e-12
0.47549096 0.020730512 0.10000003 9013641 2.741622e-06 1.2647965e-06 -1 2.868519e-12
0.47549096 0.014269488 0.10000003 9013641 2.6750661e-06 1.1561017e-06 -1 2.7025081e-12
0.47549096 0.0094237188 0.10000003 9013641 2.8205297e-06 7.6552317e-07 -1 2.7619606e-12
0.47549096 0.0045779496 0.10000003 9013641 2.9115815e-06 3.2304331e-07 -1 2.8467224e-12
0.47549096 -0.00026781857 0.10000003 9013641 2.8303355e-06 -1.1246253e-07 -1 2.8218987e-12
0.47549096 -0.0051135868 0.10000003 9013641 2.7824756e-06 -5.8727812e-07 -1 2.8127674e-12
0.47549096 -0.009959355 0.10000003 9013641 2.7182934e-06 -9.9655074e-07 -1 2.8047189e-12
0.47549096 -0.014805125 0.10000003 9013641 2.5882957e-06 -1.2553702e-06 -1 2.7477647e-12
0.47549096 -0.019650893 0.10000003 9013641 2.5944294e-06 -1.3672496e-06 -1 2.7811002e-12
0.47549096 -0.024496661 0.10000003 9013641 2.6494806e-06 -1.3981449e-06 -1 3.112752e-12
0.47549096 -0.02934243 0.10000003 9013641 2.6692981e-06 -1.2234826e-06 -1 3.4555037e-12
0.47549096 -0.034188196 0.10000003 9013641 2.7091539e-06 -9.6632266e-07 -1 3.7321205e-12
0.47549096 -0.04064922 0.10000003 9013641 2.8269776e-06 -4.6248212e-07 -1 4.0563152e-12
0.47549096 -0.045494989 0.10000003 9013641 2.7436502e-06 7.9085588e-08 -1 4.0764002e-12
0.47549096 -0.050340764 0.10000003 9013641 2.6416649e-06 4.200717e-07 -1 4.2302451e-12
0.47549096 -0.055186532 0.10000003 9013641 2.5837414e-06 6.1100053e-07 -1 4.7887909e-12
0.47549096 -0.060032293 0.10000003 9013641 2.6213745e-06 5.6584463e-07 -1 5.0760971e-12
0.47549096 -0.064878061 0.10000003 9013641 2.6669907e-06 4.458029e-07 -1 5.5501497e-12
0.47549096 -0.069723837 0.10000003 9013641 2.5051797e-06 5.523766e-08 -1 5.4645372e-12
0.47549096 -0.074569605 0.10000003 9013641 2.3481955e-06 -2.351471e-07 -1 5.3060386e-12
0.47549096 -0.079415374 0.10000003 9013641 2.4260614e-06 -3.1879949e-07 -1 5.8807234e-12
0.47549096 -0.08587639 0.10000003 9013641 2.6317437e-06 -1.7164139e-07 -1 6.3731828e-12
0.47549096 -0.090722159 0.10000003 9013641 2.7502226e-06 -3.7807371e-07 -1 6.8662671e-12
0.47549096 -0.095567919 0.10000003 9013641 2.9974065e-06 -5.9307126e-07 -1 7.1214029e-12
0.47549096 -0.1004137 0.10000003 9013641 3.3021386e-06 -1.0840494e-06 -1 7.1622591e-12
0.47549096 -0.10525947 0.10000003 9013641 3.9413435e-06 -1.393283e-06 -1 8.5225898e-12
0.47549096 -0.11010525 0.10000003 9013641 5.0195595e-06 -2.8624886e-06 -1 8.5240157e-12
0.47549096 -0.114951 0.10000015 9013641 6.720802e-06 -5.8756709e-06 -1 8.1301875e-12
0.47549096 -0.11979677 0.10000015 9013641 9.3435228e-06 -1.1546394e-05 -1 9.3189709e-12
0.47064519 0.11441536 0.10000005 9013641 4.4063854e-06 1.538973e-06 -1 7.5936956e-12
0.47064519 0.1095696 0.10000005 9013641 3.7674283e-06 2.9008368e-07 -1 6.9934362e-12
0.47064519 0.10472383 0.10000005 9013641 3.6156409e-06 1.7965417e-07 -1 6.7326773e-12
0.47064519 0.099878065 0.10000005 9013641 3.3970075e-06 2.4312726e-07 -1 6.6281238e-12
0.47064519 0.095032297 0.10000005 9013641 3.3781996e-06 -2.2386261e-07 -1 6.6191466e-12
0.47064519 0.090186521 0.10000005 9013641 3.2153146e-06 -3.4860332e-07 -1 6.3518392e-12
0.47064519 0.085340753 0.10000005 9013641 3.2858954e-06 -2.9581304e-07 -1 6.0838296e-12
0.47064519 0.080494992 0.10000005 9013641 3.105016e-06 -1.9105417e-07 -1 5.5372005e-12
0.47064519 0.075649224 0.10000005 9013641 3.1254906e-06 4.2709807e-08 -1 5.2658902e-12
0.47064519 0.0691882 0.10000005 9013641 2.9980781e-06 -6.6595256e-08 -1 5.493106e-12
0.47064519 0.064342432 0.10000005 9013641 2.8955003e-06 -1.7998579e-09 -1 5.2125405e-12
0.47064519 0.059496664 0.10000005 9013641 2.8604884e-06 -2.8017143e-07 -1 4.7940202e-12
0.47064519 0.054650895 0.10000005 9013641 2.7970607e-06 -2.3033571e-07 -1 4.4236355e-12
0.47064519 0.049805127 0.10000005 9013641 2.888193e-06 -2.8587912e-09 -1 3.9772391e-12
0.47064519 0.044959359 0.10000005 9013641 2.9361761e-06 3.0961314e-07 -1 4.0440281e-12
0.47064519 0.040113587 0.10000005 9013641 2.9040646e-06 6.3555234e-07 -1 4.0254072e-12
0.47064519 0.035267819 0.10000005 9013641 2.7087478e-06 8.1221492e-07 -1 4.0634926e-12
0.47064519 0.030422051 0.10000005 9013641 2.524511e-06 1.0830358e-06 -1 3.7198703e-12
0.47064519 0.025576282 0.10000005 9013641 2.4649569e-06 1.2143831e-06 -1 2.8676428e-12
0.47064519 0.020730512 0.10000005 9013641 2.4941953e-06 1.2421324e-06 -1 2.836666e-12
0.47064519 0.014269488 0.10000005 9013641 2.6211712e-06 1.2447616e-06 -1 2.7565298e-12
0.47064519 0.0094237188 0.10000005 9013641 2.6131386e-06 9.3721457e-07 -1 2.8049076e-12
0.47064519 0.0045779496 0.10000005 9013641 2.702561e-06 4.247556e-07 -1 3.0297138e-12
0.47064519 -0.00026781857 0.10000005 9013641 2.7419881e-06 -1.1226709e-07 -1 3.0050626e-12
0.47064519 -0.0051135868 0.10000005 9013641 2.713469e-06 -6.5815982e-07 -1 2.941298e-12
0.47064519 -0.009959355 0.10000005 9013641 2.6922623e-06 -1.1473979e-06 -1 2.8625561e-12
0.47064519 -0.014805125 0.10000005 9013641 2.577917e-06 -1.3552321e-06 -1 2.8281054e-12
0.47064519 -0.019650893 0.10000005 9013641 2.4623207e-06 -1.4753948e-06 -1 2.7623253e-12
0.47064519 -0.024496661 0.10000005 9013641 2.3125247e-06 -1.2573154e-06 -1 2.8984575e-12
0.47064519 -0.02934243 0.10000005 9013641 2.4507056e-06 -1.1538701e-06 -1 3.4077582e-12
0.47064519 -0.034188196 0.10000005 9013641 2.6685918e-06 -8.4635127e-07 -1 3.7598666e-12
0.47064519 -0.04064922 0.10000005 9013641 2.7985682e-06 -3.8279188e-07 -1 3.8820175e-12
0.47064519 -0.045494996 0.10000005 9013641 2.7744402e-06 -2.634347e-08 -1 3.7430033e-12
0.47064519 -0.050340764 0.10000005 9013641 2.648145e-06 2.879074e-07 -1 4.01966e-12
0.47064519 -0.055186532 0.10000005 9013641 2.4655849e-06 6.5937303e-07 -1 4.2578324e-12
0.47064519 -0.060032301 0.10000005 9013641 2.476537e-06 6.3674469e-07 -1 4.7645121e-12
0.47064519 -0.064878069 0.10000005 9013641 2.4436188e-06 3.089871e-07 -1 5.2348278e-12
0.47064519 -0.069723837 0.10000005 9013641 2.4620083e-06 -2.0990017e-08 -1 5.4131565e-12
0.47064519 -0.074569605 0.10000005 9013641 2.5906782e-06 -2.7302306e-07 -1 5.1516257e-12
0.47064519 -0.079415374 0.10000005 9013641 2.6771133e-06 -3.4493681e-08 -1 5.3556114e-12
0.47064519 -0.085876405 0.10000005 9013641 2.9071778e-06 -5.4093572e-08 -1 6.0733558e-12
0.47064519 -0.090722159 0.10000005 9013641 2.9298305e-06 -2.158408e-07 -1 6.3210917e-12
0.47064519 -0.095567934 0.10000005 9013641 3.1979428e-06 -4.1141158e-07 -1 6.4886104e-12
0.47064519 -0.1004137 0.10000005 9013641 3.5526107e-06 -6.0364687e-07 -1 7.2085931e-12
0.47064519 -0.10525947 0.10000005 9013641 4.0071245e-06 -7.4528873e-07 -1 7.3991421e-12
0.47064519 -0.11010525 0.10000005 9013641 4.6143632e-06 -1.6549774e-06 -1 7.9589443e-12
0.47064519 -0.114951 0.10000005 9013641 5.8355618e-06 -4.0410341e-06 -1 8.2927866e-12
0.47064519 -0.11979677 0.10000005 9013641 7.1814256e-06 -7.3204415e-06 -1 8.7844246e-12
0.46418417 0.1208764 0.10000008 9013641 3.5368678e-06 2.3426032e-06 -1 7.2477653e-12
0.46418417 0.11441538 0.10000008 9013641 3.0247713e-06 6.6884968e-07 -1 7.1503775e-12
0.46418417 0.10956961 0.10000008 9013641 3.2397354e-06 1.6894458e-07 -1 6.2434584e-12
0.46418417 0.10472383 0.10000008 9013641 3.4953503e-06 -4.3657864e-09 -1 5.5909938e-12
0.46418417 0.099878065 0.10000008 9013641 3.5647456e-06 8.4173223e-08 -1 5.6846142e-12
0.46418417 0.095032297 0.10000008 9013641 3.5555788e-06 -2.3097962e-07 -1 5.4297743e-12
0.46418417 0.090186536 0.10000008 9013641 3.6448494e-06 -3.9904862e-07 -1 5.4444804e-12
0.46418417 0.085340768 0.10000008 9013641 3.4675411e-06 -4.7676602e-07 -1 5.2937888e-12
0.46418417 0.080494992 0.10000008 9013641 3.3901845e-06 -4.6996948e-07 -1 4.9591819e-12
0.46418417 0.075649224 0.10000008 9013641 3.1527495e-06 -1.9129025e-07 -1 5.2926231e-12
0.46418417 0.0691882 0.10000008 9013641 3.0870972e-06 -2.5494586e-07 -1 5.7150209e-12
0.46418417 0.064342432 0.10000008 9013641 2.9692685e-06 -3.8976606e-07 -1 5.6253465e-12
0.46418417 0.059496664 0.10000008 9013641 2.6053206e-06 -4.0057657e-07 -1 4.8470858e-12
0.46418417 0.054650895 0.10000008 9013641 2.3884711e-06 -1.394997e-07 -1 4.0912612e-12
0.46418417 0.049805127 0.10000008 9013641 2.5463216e-06 1.7087072e-07 -1 4.0955446e-12
0.46418417 0.044959355 0.10000008 9013641 2.713685e-06 3.3370867e-07 -1 4.1658886e-12
0.46418417 0.040113587 0.10000008 9013641 2.7485901e-06 4.6452053e-07 -1 3.9815473e-12
0.46418417 0.035267819 0.10000008 9013641 2.7358503e-06 6.4652176e-07 -1 3.9791525e-12
0.46418417 0.030422051 0.10000008 9013641 2.6844498e-06 8.6562386e-07 -1 3.3844141e-12
0.46418417 0.025576282 0.10000008 9013641 2.697496e-06 1.3429189e-06 -1 2.8732134e-12
0.46418417 0.020730512 0.10000008 9013641 2.7632539e-06 1.3878937e-06 -1 2.8146617e-12
0.46418417 0.014269488 0.099999957 9013641 2.7402118e-06 1.3238448e-06 -1 2.7316658e-12
