# .PCD v0.7 - Point Cloud Data file format
VERSION 0.7
FIELDS x y z rgb normal_x normal_y normal_z curvature
SIZE 4 4 4 4 4 4 4 4
TYPE F F F U F F F F
COUNT 1 1 1 1 1 1 1 1
WIDTH 89
HEIGHT 1
VIEWPOINT 0 0 0 1 0 0 0
POINTS 89
DATA ascii
-1.1549155 -0.86573392 1.2189761 3684408 -0.50279373 -0.74421477 0.43970764 7.5369701e-07
-1.1514542 -0.86645764 1.2216976 3684408 -0.50108051 -0.74504149 0.44026294 6.6401361e-07
-1.147384 -0.86794406 1.2237955 3684408 -0.50021952 -0.74527377 0.44084856 6.3058815e-07
-1.1570586 -0.86220562 1.2225146 3684408 -0.5019455 -0.74545908 0.43856749 1.0209548e-06
-1.1542543 -0.86433446 1.2221026 3684408 -0.50192517 -0.74493933 0.439473 5.1586466e-07
-1.1602421 -0.85883498 1.2245978 3684408 -0.50254899 -0.74479717 0.43900073 1.2439123e-06
-1.1414837 -0.8706553 1.2259033 3684408 -0.50032544 -0.74482697 0.44148302 7.6629135e-07
-1.136562 -0.87245649 1.2284425 3684408 -0.50057185 -0.74480045 0.44124836 9.2042683e-07
-1.1465846 -0.86630708 1.2274742 3684408 -0.500036 -0.74578053 0.44019935 1.2057985e-06
-1.1432428 -0.86835861 1.2277918 3684408 -0.50002086 -0.74590033 0.44001341 1.0187287e-06
-1.1395493 -0.86970991 1.2296977 3684408 -0.50013578 -0.74574763 0.44014168 9.2021327e-07
-1.1553713 -0.86061525 1.2271386 3684408 -0.50098318 -0.74489504 0.44062141 1.1058924e-06
-1.1520354 -0.86266112 1.2274654 3684408 -0.50021726 -0.74525511 0.44088262 1.1875842e-06
-1.1486969 -0.86470884 1.2277837 3684408 -0.5001384 -0.74551469 0.44053316 1.2532975e-06
-1.1617033 -0.85579836 1.228065 3684408 -0.50272614 -0.74440724 0.43945909 1.5616893e-06
-1.1581855 -0.85847682 1.2275517 3684408 -0.50170815 -0.74450922 0.44044855 1.2116407e-06
-1.1638156 -0.85418868 1.2283709 3684408 -0.50344396 -0.74413019 0.43910643 1.3833732e-06
-1.1266613 -0.87609041 1.2335558 3684408 -0.49995372 -0.74539846 0.44093925 1.4410934e-06
-1.1370851 -0.87060618 1.23098 3684408 -0.50036949 -0.7455883 0.44014594 9.2244147e-07
-1.1324972 -0.87311846 1.2319459 3684408 -0.50080466 -0.74500912 0.44063151 7.122818e-07
-1.129651 -0.87333357 1.2348222 3684408 -0.50044179 -0.74538833 0.44040236 1.2033133e-06
-1.1421965 -0.86624539 1.2325588 3684408 -0.50028175 -0.74523407 0.44084507 1.2226591e-06
-1.1376101 -0.86875087 1.2335296 3684408 -0.50054121 -0.74544573 0.44019219 1.1451036e-06
-1.1522471 -0.86007243 1.2315795 3684408 -0.50043571 -0.74451625 0.44188195 1.1097203e-06
-1.1476674 -0.86257809 1.2325443 3684408 -0.50035447 -0.74469954 0.44166505 1.2896039e-06
-1.1577126 -0.85641068 1.2315671 3684408 -0.50083798 -0.74434716 0.44171101 1.1185364e-06
-1.1534312 -0.85851991 1.23285 3684408 -0.50046241 -0.74440455 0.44203988 9.703856e-07
-1.1656046 -0.85186023 1.2302576 3684408 -0.50303382 -0.74396348 0.43985832 1.1468746e-06
-1.1628432 -0.85202211 1.2331333 3684408 -0.50172627 -0.74429995 0.44078153 1.4660886e-06
-1.1582689 -0.85452145 1.2341032 3684408 -0.50056446 -0.74441051 0.44191429 1.2220825e-06
-1.1683072 -0.84834695 1.2331105 3684408 -0.50346184 -0.74392968 0.4394255 1.1643576e-06
-1.1154006 -0.880193 1.2393328 3684408 -0.49818406 -0.74797118 0.43857926 2.2840559e-06
-1.122547 -0.87675709 1.2370852 3684408 -0.49892643 -0.74691772 0.43952966 2.1221249e-06
-1.118788 -0.87812579 1.239015 3684408 -0.49837789 -0.74730235 0.43949822 2.9355806e-06
-1.1326506 -0.87056881 1.2360994 3684408 -0.50043112 -0.74547666 0.44026503 1.4797807e-06
-1.1275038 -0.8730005 1.2378291 3684408 -0.4995884 -0.74569875 0.44084561 1.6221692e-06
-1.1370701 -0.86671931 1.2375857 3684408 -0.50092024 -0.74470454 0.4410148 1.1797333e-06
-1.131923 -0.86915886 1.2393159 3684408 -0.50024962 -0.7450009 0.44127539 1.8582377e-06
-1.1466246 -0.86042786 1.2373341 3684408 -0.50067729 -0.74437827 0.44184077 1.3778183e-06
-1.1432649 -0.86248964 1.2376746 3684408 -0.50099212 -0.74441868 0.44141567 1.3102663e-06
-1.1399039 -0.86455876 1.2380069 3684408 -0.50098974 -0.74455321 0.44119138 1.2527146e-06
-1.1558089 -0.85541093 1.2353849 3684408 -0.5005241 -0.74437439 0.44202077 1.0766156e-06
-1.1521099 -0.85674769 1.2373147 3684408 -0.50034261 -0.74447405 0.4420585 1.1392406e-06
-1.1487483 -0.85881108 1.2376477 3684408 -0.50048649 -0.74444312 0.44194758 1.2706151e-06
-1.1600635 -0.85217816 1.2360158 3684408 -0.50048316 -0.74460423 0.44167992 1.4706557e-06
-1.1573797 -0.85257894 1.2383734 3684408 -0.50036156 -0.7446959 0.44166312 1.3351842e-06
-1.1526635 -0.85485011 1.2398823 3684408 -0.5003798 -0.74471611 0.4416084 1.2810517e-06
-1.1671623 -0.84679049 1.2370657 3684408 -0.50176197 -0.7445429 0.44033036 8.886463e-07
-1.1632874 -0.84874952 1.2381487 3684408 -0.50062603 -0.7448082 0.44117379 1.1433464e-06
-1.1722364 -0.84268534 1.2382276 3684408 -0.5031482 -0.74428403 0.43918467 1.0432159e-06
-1.1174688 -0.87665677 1.242996 3684408 -0.4997437 -0.74606359 0.44005156 2.8028235e-06
-1.1133697 -0.87926835 1.2432218 3684408 -0.50283378 -0.74591738 0.43676704 4.0338009e-06
-1.1269248 -0.87097353 1.2419089 3684408 -0.49949685 -0.74513382 0.44190326 1.4848619e-06
-1.1228293 -0.87358397 1.2421321 3684408 -0.49913514 -0.74554598 0.44161668 1.768592e-06
-1.1336858 -0.86682814 1.2412473 3684408 -0.50040656 -0.74462855 0.44172567 1.695193e-06
-1.1286857 -0.86864275 1.2438504 3684408 -0.49946761 -0.74440813 0.44315758 1.7732666e-06
-1.1409585 -0.86079395 1.2431525 3684408 -0.50128609 -0.74427474 0.44132462 1.2114846e-06
-1.1381165 -0.86295807 1.2427349 3684408 -0.50107974 -0.74425817 0.44158673 1.3349313e-06
-1.1342049 -0.86494249 1.2438345 3684408 -0.50036609 -0.74425775 0.44239593 1.6759852e-06
-1.1501867 -0.85574257 1.2411772 3684408 -0.50070232 -0.74461788 0.44140843 1.7778035e-06
-1.1462882 -0.85771787 1.2422739 3684408 -0.50108075 -0.74464595 0.44093132 1.6592472e-06
-1.1434456 -0.85988468 1.2418522 3684408 -0.5012638 -0.74422157 0.4414396 1.4707077e-06
-1.156598 -0.85087311 1.2421368 3684408 -0.50034165 -0.74526173 0.44073033 1.4872903e-06
-1.1532201 -0.85294461 1.2424639 3684408 -0.50046831 -0.74514347 0.44078642 1.4127759e-06
-1.1495054 -0.85428089 1.2444268 3684408 -0.5009194 -0.74543428 0.43978122 1.6284628e-06
-1.1654902 -0.84511507 1.2417983 3684408 -0.50062501 -0.74462581 0.44148275 9.3038113e-07
-1.1615956 -0.8470847 1.2428857 3684408 -0.50028551 -0.74490523 0.44139624 8.5633405e-07
-1.1587391 -0.84925014 1.2424557 3684408 -0.50029051 -0.74521852 0.44086143 1.4365455e-06
-1.1722221 -0.84098214 1.2411273 3684408 -0.50311196 -0.7434988 0.44055408 1.4035342e-06
-1.1683441 -0.84294868 1.2422237 3684408 -0.50135297 -0.74409068 0.4415589 9.2386244e-07
-1.1728173 -0.83904487 1.2437109 3684408 -0.50306147 -0.74266428 0.44201681 1.4035342e-06
-1.1156048 -0.87509102 1.2477832 3684408 -0.50457442 -0.74506533 0.43621367 3.7251386e-06
-1.1226496 -0.87139583 1.2460182 3684408 -0.49916995 -0.74450183 0.44333547 1.8574435e-06
-1.1184461 -0.87291843 1.248202 3684408 -0.50239599 -0.74446118 0.43974522 2.7034591e-06
-1.1317024 -0.86584902 1.2451398 3684408 -0.49968505 -0.74429971 0.44309461 2.1422998e-06
-1.1280996 -0.86658198 1.2479621 3684408 -0.49833035 -0.74376661 0.44550881 2.3669443e-06
-1.1241463 -0.86857826 1.2490493 3684408 -0.49943566 -0.74337637 0.444922 1.8666166e-06
-1.1363193 -0.86133367 1.2475059 3684408 -0.5004881 -0.74467146 0.44156098 1.8894942e-06
-1.132211 -0.8639636 1.2477329 3684408 -0.49935305 -0.74412584 0.44376037 2.2813529e-06
-1.1470197 -0.8551802 1.2457348 3684408 -0.5011425 -0.74561256 0.43922439 1.830178e-06
-1.1423837 -0.85771668 1.2467206 3684408 -0.50113541 -0.74535614 0.43966746 1.8364221e-06
-1.1395335 -0.85788852 1.2496784 3684408 -0.50079751 -0.74628145 0.43848133 1.9437875e-06
-1.1519029 -0.85113931 1.2470257 3684408 -0.50109476 -0.74543005 0.43958852 1.2345024e-06
-1.1475706 -0.85327846 1.2483419 3684408 -0.50120431 -0.74616355 0.43821713 1.5370711e-06
-1.1577373 -0.84703779 1.2473304 3684408 -0.50085402 -0.7447089 0.44108272 1.2642745e-06
-1.1531113 -0.84955817 1.2483304 3684408 -0.50120252 -0.74527144 0.43973464 1.3047047e-06
-1.1678929 -0.84081101 1.246327 3684408 -0.5006308 -0.74296385 0.44426736 1.0184197e-06
-1.1632714 -0.8433274 1.2473185 3684408 -0.50068074 -0.74398726 0.44249493 9.9521878e-07
-1.1684775 -0.83885837 1.2489268 3684408 -0.50049448 -0.74199772 0.44603214 1.3262393e-06
