# .PCD v0.7 - Point Cloud Data file format
VERSION 0.7
FIELDS x y z rgb normal_x normal_y normal_z curvature
SIZE 4 4 4 4 4 4 4 4
TYPE F F F U F F F F
COUNT 1 1 1 1 1 1 1 1
WIDTH 89
HEIGHT 1
VIEWPOINT 0 0 0 1 0 0 0
POINTS 89
DATA ascii
1.1707108 1.5224843 0.29740795 3684408 0.50040191 0.43970978 -0.74582386 7.5369701e-07
1.1672473 1.5252057 0.29669538 3684408 0.49868608 0.44026506 -0.74664503 6.6401361e-07
1.1631725 1.5273037 0.29522198 3684408 0.49782434 0.44085068 -0.74687457 6.3058815e-07
1.1728653 1.5260229 0.30092937 3684408 0.49954975 0.43856961 -0.74706542 1.0209548e-06
1.1700542 1.5256108 0.29880953 3684408 0.49953106 0.43947512 -0.74654561 5.1586466e-07
1.1760595 1.5281061 0.30428982 3684408 0.50015533 0.43900284 -0.74640542 1.2439123e-06
1.1572634 1.5294113 0.29252967 3684408 0.49793169 0.44148514 -0.74642813 7.6629135e-07
1.1523359 1.5319506 0.29074425 3684408 0.49817815 0.44125047 -0.74640238 9.2042683e-07
1.1623782 1.5309824 0.29686153 3684408 0.49763918 0.44020146 -0.74738073 1.2057985e-06
1.1590298 1.5312999 0.29482073 3684408 0.49762368 0.44001552 -0.74750048 1.0187287e-06
1.155332 1.5332057 0.29348126 3684408 0.49773908 0.44014379 -0.74734819 9.2021327e-07
1.171183 1.5306469 0.30252516 3684408 0.49858922 0.44062352 -0.74649829 1.1058924e-06
1.1678405 1.5309736 0.30048996 3684408 0.49782214 0.44088474 -0.74685591 1.1875842e-06
1.1644956 1.5312918 0.29845294 3684408 0.49774244 0.44053528 -0.74711525 1.2532975e-06
1.1775305 1.5315733 0.30732176 3684408 0.50033373 0.43946123 -0.74601609 1.5616893e-06
1.1740041 1.53106 0.30465457 3684408 0.49931541 0.44045067 -0.74611479 1.2116407e-06
1.1796479 1.5318792 0.30892462 3684408 0.50105244 0.43910858 -0.74574137 1.3833732e-06
1.1424236 1.5370637 0.28714207 3684408 0.49755812 0.44094136 -0.74699843 1.4410934e-06
1.1528649 1.5344881 0.29259288 3684408 0.49797329 0.44014806 -0.74718958 9.2244147e-07
1.1482689 1.5354539 0.2900953 3684408 0.49841031 0.44063362 -0.74661183 7.122818e-07
1.145422 1.5383301 0.28988931 3684408 0.49804625 0.44040447 -0.74698985 1.2033133e-06
1.1579903 1.5360669 0.29693723 3684408 0.49788669 0.44084719 -0.74683505 1.2226591e-06
1.1533958 1.5370376 0.2944465 3684408 0.49814546 0.44019431 -0.74704754 1.1451036e-06
1.1680605 1.5350877 0.303078 3684408 0.49804294 0.44188407 -0.74611777 1.1097203e-06
1.1634729 1.5360525 0.300587 3684408 0.4979611 0.44166717 -0.74630076 1.2896039e-06
1.1735377 1.5350754 0.30672222 3684408 0.49844575 0.44171312 -0.74594992 1.1185364e-06
1.1692495 1.5363581 0.3046267 3684408 0.49807 0.44204199 -0.74600613 9.703856e-07
1.1814444 1.5337659 0.31124732 3684408 0.50064284 0.43986046 -0.74557328 1.1468746e-06
1.1786824 1.5366416 0.31109428 3684408 0.49933419 0.44078365 -0.74590558 1.4660886e-06
1.1741002 1.5376115 0.3086096 3684408 0.49817201 0.44191641 -0.74601245 1.2220825e-06
1.1841582 1.5366189 0.31475195 3684408 0.50107098 0.43942764 -0.74554086 1.1643576e-06
1.1311496 1.5428405 0.28307563 3684408 0.49578023 0.43858132 -0.74956548 2.2840559e-06
1.1383072 1.5405931 0.28648856 3684408 0.49652597 0.43953171 -0.74851441 2.1221249e-06
1.1345438 1.5425229 0.28513196 3684408 0.49597621 0.43950027 -0.74889725 2.9355806e-06
1.1484305 1.5396074 0.29264447 3684408 0.49803528 0.44026715 -0.74707818 1.4797807e-06
1.143276 1.541337 0.29022926 3684408 0.49719185 0.44084769 -0.74729753 1.6221692e-06
1.1528622 1.5410937 0.29647982 3684408 0.49852687 0.44101691 -0.74630761 1.1797333e-06
1.1477073 1.5428239 0.29405674 3684408 0.49785531 0.4412775 -0.74660182 1.8582377e-06
1.162437 1.5408423 0.30274057 3684408 0.49828497 0.44184288 -0.74598056 1.3778183e-06
1.1590706 1.5411828 0.30068955 3684408 0.49859965 0.44141778 -0.74602199 1.3102663e-06
1.1557031 1.541515 0.29863122 3684408 0.49859685 0.44119349 -0.74615651 1.2527146e-06
1.1716373 1.5388932 0.30772808 3684408 0.49813178 0.44202289 -0.74597621 1.0766156e-06
1.1679339 1.5408229 0.30640316 3684408 0.49794996 0.44206062 -0.74607527 1.1392406e-06
1.1645658 1.5411558 0.30435055 3684408 0.49809396 0.4419497 -0.74604481 1.2706151e-06
1.1759021 1.5395241 0.31094715 3684408 0.49809009 0.44168204 -0.74620587 1.4706557e-06
1.1732172 1.5418817 0.31055498 3684408 0.49796823 0.44166523 -0.74629718 1.3351842e-06
1.1684935 1.5433905 0.30829898 3684408 0.49798638 0.44161052 -0.74631745 1.2810517e-06
1.1830182 1.540574 0.31631207 3684408 0.49936911 0.44033247 -0.74614865 8.886463e-07
1.179137 1.541657 0.31436545 3684408 0.49823233 0.44117591 -0.74641031 1.1433464e-06
1.1881056 1.5417361 0.32040089 3684408 0.5007562 0.43918681 -0.74589425 1.0432159e-06
1.1332293 1.5465038 0.28660503 3684408 0.49734598 0.44005367 -0.7476629 2.8028235e-06
1.1291218 1.5467294 0.28400666 3684408 0.50043654 0.43676919 -0.74752659 4.0338009e-06
1.1427034 1.5454168 0.29225796 3684408 0.49710208 0.44190535 -0.74673229 1.4848619e-06
1.1385996 1.54564 0.28966066 3684408 0.49673906 0.44161877 -0.74714333 1.768592e-06
1.1494776 1.5447553 0.29638168 3684408 0.49801344 0.44172779 -0.74622995 1.695193e-06
1.1444716 1.5473583 0.29458311 3684408 0.49707517 0.44315967 -0.74600661 1.7732666e-06
1.1567696 1.5466605 0.30239251 3684408 0.4988941 0.44132674 -0.74587893 1.2114846e-06
1.1539207 1.546243 0.30023751 3684408 0.4986878 0.44158885 -0.74586171 1.3349313e-06
1.1500027 1.5473425 0.29826564 3684408 0.49797413 0.44239804 -0.74585903 1.6759852e-06
1.166014 1.5446854 0.30741432 3684408 0.49830922 0.44141054 -0.74622023 1.7778035e-06
1.1621091 1.5457821 0.30545151 3684408 0.49868757 0.44093344 -0.7462495 1.6592472e-06
1.1592597 1.5453603 0.30329382 3684408 0.49887198 0.44144171 -0.74582571 1.4707077e-06
1.1724408 1.5456451 0.31226319 3684408 0.4979465 0.44073245 -0.74686295 1.4872903e-06
1.1690562 1.5459721 0.31020251 3684408 0.49807355 0.44078854 -0.74674511 1.4127759e-06
1.1653373 1.547935 0.30887812 3684408 0.49852371 0.43978333 -0.74703735 1.6284628e-06
1.1813514 1.5453067 0.31799275 3684408 0.49823189 0.44148487 -0.74622792 9.3038113e-07
1.1774505 1.546394 0.31603557 3684408 0.49789149 0.44139835 -0.74650627 8.5633405e-07
1.1745871 1.545964 0.31387931 3684408 0.49789551 0.44086355 -0.74681956 1.4365455e-06
1.1880966 1.5446358 0.32210404 3684408 0.50072247 0.44055623 -0.7451089 1.4035342e-06
1.1842123 1.5457323 0.32014993 3684408 0.49896157 0.44156101 -0.74569511 9.2386244e-07
1.1886981 1.5472194 0.3240394 3684408 0.50067461 0.44201896 -0.7442742 1.4035342e-06
1.1313702 1.551291 0.28817677 3684408 0.50217992 0.43621582 -0.74668008 3.7251386e-06
1.1384268 1.5495261 0.29184937 3684408 0.49677721 0.44333756 -0.74609935 1.8574435e-06
1.1342185 1.5517099 0.29034024 3684408 0.5000034 0.43974733 -0.74606895 2.7034591e-06
1.1474973 1.5486479 0.29736713 3684408 0.49729297 0.44309673 -0.74589884 2.1422998e-06
1.143892 1.55147 0.29664576 3684408 0.49593994 0.44551089 -0.74536145 2.3669443e-06
1.1399326 1.5525572 0.29466215 3684408 0.4970465 0.44492409 -0.74497473 1.8666166e-06
1.1521286 1.5510139 0.30186766 3684408 0.49809483 0.4415631 -0.74627316 1.8894942e-06
1.1480119 1.5512409 0.2992509 3684408 0.4969615 0.44376245 -0.74572396 2.2813529e-06
1.1628488 1.549243 0.30798686 3684408 0.49874625 0.43922651 -0.74721634 1.830178e-06
1.1582047 1.5502286 0.30546522 3684408 0.49873996 0.43966958 -0.74695987 1.8364221e-06
1.1553539 1.5531864 0.30530253 3684408 0.49839911 0.43848345 -0.74788409 1.9437875e-06
1.1677449 1.5505339 0.31201205 3684408 0.49869907 0.43959063 -0.74703366 1.2345024e-06
1.1634058 1.5518501 0.30988675 3684408 0.4988063 0.43821925 -0.74776751 1.5370711e-06
1.1735923 1.5508387 0.31609485 3684408 0.49846062 0.44108483 -0.74631172 1.2642745e-06
1.1689583 1.5518385 0.3135893 3684408 0.49880734 0.43973675 -0.74687541 1.3047047e-06
1.1837679 1.5498356 0.32228902 3684408 0.49824297 0.44426948 -0.74456602 1.0184197e-06
1.1791384 1.5508269 0.3197875 3684408 0.49828967 0.44249704 -0.74558955 9.9521878e-07
1.1843588 1.5524353 0.32423979 3684408 0.49810973 0.44603425 -0.74359947 1.3262393e-06
