# .PCD v0.7 - Point Cloud Data file format
VERSION 0.7
FIELDS x y z rgb normal_x normal_y normal_z curvature
SIZE 4 4 4 4 4 4 4 4
TYPE F F F U F F F F
COUNT 1 1 1 1 1 1 1 1
WIDTH 89
HEIGHT 1
VIEWPOINT 0 0 0 1 0 0 0
POINTS 89
DATA ascii
1.1665511 1.5224826 0.29121372 3684408 0.49643967 0.43970901 -0.74846756 7.5369701e-07
1.1630839 1.5252041 0.29051945 3684408 0.49471948 0.44026431 -0.74927968 6.6401361e-07
1.1590012 1.527302 0.28906772 3684408 0.49385652 0.44084993 -0.74950463 6.3058815e-07
1.1687243 1.5260211 0.2947236 3684408 0.49558088 0.43856886 -0.7497046 1.0209548e-06
1.165902 1.5256091 0.29261875 3684408 0.49556497 0.43947437 -0.74918473 5.1586466e-07
1.1719363 1.5281045 0.29806703 3684408 0.49618998 0.4390021 -0.74904788 1.2439123e-06
1.153078 1.5294096 0.28640676 3684408 0.49396622 0.44148439 -0.74905872 7.6629135e-07
1.148141 1.5319489 0.28464743 3684408 0.49421287 0.44124973 -0.74903429 9.2042683e-07
1.1582156 1.5309807 0.29071131 3684408 0.49366868 0.44020072 -0.75000978 1.2057985e-06
1.1548566 1.5312982 0.28868827 3684408 0.49365252 0.44001478 -0.75012946 1.0187287e-06
1.1511515 1.5332041 0.28736848 3684408 0.49376875 0.44014305 -0.74997771 9.2021327e-07
1.1670505 1.5306451 0.29632816 3684408 0.49462339 0.44062278 -0.74913239 1.1058924e-06
1.1636972 1.5309719 0.29431078 3684408 0.4938544 0.44088399 -0.74948597 1.1875842e-06
1.1603414 1.5312902 0.29229152 3684408 0.49377334 0.44053453 -0.74974477 1.2532975e-06
1.1734232 1.5315717 0.30109099 3684408 0.49637046 0.43946046 -0.74865943 1.5616893e-06
1.1698827 1.5310583 0.29844257 3684408 0.49535158 0.44044992 -0.74875277 1.2116407e-06
1.1755491 1.5318776 0.30268264 3684408 0.49709058 0.43910781 -0.74838847 1.3833732e-06
1.1382098 1.537062 0.28109786 3684408 0.49358967 0.44094062 -0.74962705 1.4410934e-06
1.1486799 1.5344864 0.28649315 3684408 0.4940038 0.44014731 -0.74982035 9.2244147e-07
1.1440707 1.5354522 0.28402004 3684408 0.49444389 0.44063288 -0.74924499 7.122818e-07
1.1412227 1.5383284 0.28382915 3684408 0.4940778 0.44040373 -0.74962109 1.2033133e-06
1.1538281 1.5360652 0.29081035 3684408 0.49391907 0.44084644 -0.74946547 1.2226591e-06
1.1492207 1.5370359 0.28834397 3684408 0.49417675 0.44019356 -0.74967933 1.1451036e-06
1.1639309 1.535086 0.29689756 3684408 0.49407914 0.44188333 -0.74874896 1.1097203e-06
1.1593301 1.5360508 0.29443097 3684408 0.49399632 0.44166642 -0.74893153 1.2896039e-06
1.1694274 1.5350738 0.30051267 3684408 0.49448285 0.44171238 -0.74858326 1.1185364e-06
1.1651282 1.5363566 0.29843995 3684408 0.4941068 0.44204125 -0.7486375 9.703856e-07
1.1773578 1.5337644 0.30499581 3684408 0.4966819 0.43985969 -0.7482183 1.1468746e-06
1.1745952 1.53664 0.30485743 3684408 0.49537149 0.4407829 -0.74854362 1.4660886e-06
1.1699997 1.5376098 0.30239713 3684408 0.49420878 0.44191566 -0.74864429 1.2220825e-06
1.1800902 1.5366173 0.30848598 3684408 0.49711016 0.43942687 -0.74818814 1.1643576e-06
1.1269144 1.5428389 0.27709121 3684408 0.49179819 0.43858057 -0.75218463 2.2840559e-06
1.1340899 1.5405915 0.2804662 3684408 0.49254951 0.43953097 -0.7511375 2.1221249e-06
1.1303194 1.5425212 0.27912953 3684408 0.49199772 0.43949953 -0.75151742 2.9355806e-06
1.1442459 1.5396057 0.28656828 3684408 0.49406639 0.4402664 -0.74970925 1.4797807e-06
1.1390785 1.5413353 0.28418049 3684408 0.49322179 0.44084695 -0.74992418 1.6221692e-06
1.1486979 1.541092 0.29038006 3684408 0.49456206 0.44101617 -0.74894136 1.1797333e-06
1.1435301 1.5428222 0.2879844 3684408 0.49388894 0.44127676 -0.74923199 1.8582377e-06
1.1583055 1.5408406 0.29658997 3684408 0.49432188 0.44184214 -0.748613 1.3778183e-06
1.1549284 1.541181 0.29455689 3684408 0.49463639 0.44141704 -0.74865609 1.3102663e-06
1.1515499 1.5415133 0.29251644 3684408 0.49463284 0.44119275 -0.74879062 1.2527146e-06
1.1675323 1.5388916 0.30152857 3684408 0.49416873 0.44202214 -0.74860787 1.0766156e-06
1.1638219 1.5408213 0.30022335 3684408 0.4939864 0.44205987 -0.74870598 1.1392406e-06
1.1604429 1.5411543 0.29818863 3684408 0.49413055 0.44194895 -0.74867624 1.2706151e-06
1.1718142 1.5395225 0.30472502 3684408 0.49412584 0.4416813 -0.74883735 1.4706557e-06
1.1691271 1.54188 0.30434713 3684408 0.49400347 0.44166449 -0.74892795 1.3351842e-06
1.1643916 1.543389 0.30211616 3684408 0.49402153 0.44160977 -0.74894834 1.2810517e-06
1.1789587 1.5405724 0.3100521 3684408 0.49540514 0.44033173 -0.74878687 8.886463e-07
1.1750672 1.5416554 0.30812612 3684408 0.49426699 0.44117516 -0.74904251 1.1433464e-06
1.1840675 1.5417343 0.31411397 3684408 0.49679357 0.43918604 -0.74853981 1.0432159e-06
1.1290128 1.5465022 0.28060973 3684408 0.49337402 0.4400529 -0.75029033 2.8028235e-06
1.1248915 1.5467279 0.27803314 3684408 0.49646527 0.43676841 -0.75017035 4.0338009e-06
1.1385167 1.5454152 0.28621233 3684408 0.49313506 0.4419046 -0.74935853 1.4848619e-06
1.1343992 1.5456383 0.28363678 3684408 0.49276987 0.44161803 -0.74976754 1.768592e-06
1.1453128 1.5447537 0.29030001 3684408 0.49404904 0.44172704 -0.74886101 1.695193e-06
1.1402974 1.5473566 0.288528 3684408 0.493112 0.44315892 -0.74863261 1.7732666e-06
1.1526366 1.5466589 0.29627216 3684408 0.49493158 0.44132599 -0.74851465 1.2114846e-06
1.1497762 1.5462413 0.29413226 3684408 0.49472538 0.4415881 -0.74849635 1.3349313e-06
1.1458479 1.5473409 0.29218119 3684408 0.4940117 0.4423973 -0.74848986 1.6759852e-06
1.1619073 1.5446838 0.30124477 3684408 0.49434489 0.4414098 -0.74885285 1.7778035e-06
1.1579921 1.5457805 0.29930276 3684408 0.49472308 0.44093269 -0.74888414 1.6592472e-06
1.1551313 1.5453587 0.29716021 3684408 0.49490973 0.44144097 -0.74846131 1.4707077e-06
1.1683599 1.5456434 0.30605951 3684408 0.49397874 0.4407317 -0.7494936 1.4872903e-06
1.1649644 1.5459706 0.30401686 3684408 0.49410641 0.44078779 -0.74937648 1.4127759e-06
1.1612386 1.5479335 0.30271223 3684408 0.49455503 0.43978259 -0.7496711 1.6284628e-06
1.1773007 1.545305 0.31174171 3684408 0.49426752 0.44148412 -0.74886012 9.3038113e-07
1.1733894 1.5463924 0.30980527 3684408 0.49392563 0.44139761 -0.74913663 8.5633405e-07
1.1705147 1.5459623 0.30766419 3684408 0.49392799 0.4408628 -0.74944997 1.4365455e-06
1.1840676 1.544634 0.31581718 3684408 0.496764 0.44055545 -0.74775434 1.4035342e-06
1.180173 1.5457305 0.31388375 3684408 0.495 0.44156027 -0.74833119 9.2386244e-07
1.1846793 1.5472176 0.31774932 3684408 0.49672058 0.44201818 -0.74691939 1.4035342e-06
1.127162 1.5512893 0.28219128 3684408 0.49821311 0.43621507 -0.7493332 3.7251386e-06
1.134238 1.5495244 0.28582641 3684408 0.49281353 0.44333681 -0.74872375 1.8574435e-06
1.1300218 1.5517082 0.28433964 3684408 0.49603984 0.43974659 -0.74871057 2.7034591e-06
1.1433378 1.5486462 0.29129601 3684408 0.49333033 0.44309595 -0.74852604 2.1422998e-06
1.1397288 1.5514684 0.29059371 3684408 0.49198022 0.44551015 -0.74798143 2.3669443e-06
1.1357588 1.5525556 0.28863111 3684408 0.49308881 0.44492334 -0.74760062 1.8666166e-06
1.1479928 1.5510123 0.2957719 3684408 0.49413022 0.44156235 -0.74890459 1.8894942e-06
1.1438622 1.5512393 0.29317698 3684408 0.49299985 0.44376171 -0.74834931 2.2813529e-06
1.1587453 1.5492414 0.30183408 3684408 0.49477664 0.43922576 -0.74985123 1.830178e-06
1.1540878 1.550227 0.29933718 3684408 0.49477172 0.43966883 -0.74959481 1.8364221e-06
1.1512363 1.5531849 0.29918957 3684408 0.49442595 0.4384827 -0.75051719 1.9437875e-06
1.1636627 1.5505323 0.30583331 3684408 0.49473044 0.43958989 -0.74966836 1.2345024e-06
1.1593124 1.5518485 0.30373108 3684408 0.49483377 0.4382185 -0.75040275 1.5370711e-06
1.1695317 1.550837 0.309885 3684408 0.49449581 0.44108409 -0.74894518 1.2642745e-06
1.1648844 1.551837 0.3074041 3684408 0.49483955 0.43973601 -0.74951065 1.3047047e-06
1.1797401 1.5498338 0.31602514 3684408 0.4942874 0.44426873 -0.74719828 1.0184197e-06
1.1750972 1.5508252 0.31354818 3684408 0.49432868 0.4424963 -0.74822205 9.9521878e-07
1.1803411 1.5524335 0.31797275 3684408 0.49415931 0.44603351 -0.74623102 1.3262393e-06
