# .PCD v0.7 - Point Cloud Data file format
VERSION 0.7
FIELDS x y z rgb normal_x normal_y normal_z curvature
SIZE 4 4 4 4 4 4 4 4
TYPE F F F U F F F F
COUNT 1 1 1 1 1 1 1 1
WIDTH 365
HEIGHT 1
VIEWPOINT 0 0 0 1 0 0 0
POINTS 365
DATA ascii
0.31769276 0.79202986 1.1341619 0 0.78475589 -0.44524178 -0.431182 0.0048872102
0.31587201 0.7847476 1.1381716 0 -0.63487065 0.4929989 0.59488767 0.0032588544
0.31480125 0.78628671 1.1355656 0 -0.68492103 0.51228058 0.51812333 0.0046891081
0.31939441 0.78868449 1.1389869 0 -0.66516715 0.41205573 0.622706 0.0027727783
0.31866786 0.79059023 1.1368893 0 -0.71626717 0.41370606 0.56196856 0.0046357643
0.32223937 0.79758871 1.1372267 0 0.77016032 -0.27379271 -0.57609951 0.0037067754
0.31627685 0.78154141 1.1409284 0 -0.61408007 0.44931418 0.64886242 0.0023440227
0.32046252 0.78306919 1.1431447 0 -0.5963468 0.45058388 0.66433775 0.0048598903
0.31978408 0.78646654 1.1406822 0 -0.62641656 0.41990784 0.65671885 0.0022608908
0.32399735 0.78702092 1.1439668 0 0.63858503 -0.3857953 -0.66586119 0.0039224406
0.32306483 0.79165542 1.1408789 0 -0.6720199 0.33293042 0.66147304 0.0028067622
0.32751095 0.79268038 1.1448182 0 0.66745967 -0.28000209 -0.68999738 0.002112478
0.32710657 0.7965197 1.1429883 0 0.69239128 -0.23129919 -0.68344349 0.0025429321
0.32651997 0.80188227 1.1409744 0 0.72733921 -0.14179595 -0.67146975 0.0010020061
0.32153678 0.77762455 1.1476299 0 -0.62163132 0.54413265 0.56346619 0.0069218962
0.32524568 0.77947223 1.1501784 0 0.68823373 -0.58229786 -0.4327395 0.027384644
0.3246716 0.78362942 1.1464512 0 -0.64029622 0.43362361 0.63402784 0.0040396578
0.32504421 0.78142023 1.1482099 0 -0.6612258 0.48583999 0.5716117 0.0047785016
0.32862246 0.78666729 1.1484073 0 0.69422317 -0.39463553 -0.6019277 0.0053716428
0.32800558 0.79017317 1.146072 0 0.67522138 -0.32250437 -0.6633755 0.0047782185
0.33209193 0.79372251 1.1487758 0 0.68997324 -0.25692922 -0.67670107 0.0015433128
0.33162552 0.79763025 1.1470339 0 0.68863744 -0.19627468 -0.69803631 0.0011377683
0.33120477 0.8017621 1.1456592 0 0.69768536 -0.12799345 -0.70487785 0.00040300714
0.32917351 0.78371847 1.1515046 0 0.7528162 -0.51492304 -0.41002685 0.024730137
0.33269456 0.79023015 1.1511322 0 0.74064392 -0.36713302 -0.56272542 0.0062070973
0.33593446 0.80317557 1.1501 0 0.71218157 -0.1099304 -0.69333446 0.00041612802
0.32733309 0.77911043 1.1549909 0 0.74085295 -0.64455938 -0.18889177 0.028244626
0.37322891 0.77908021 1.1598135 0 0.21015798 0.71845526 0.66306537 0.064062759
0.37652791 0.77920985 1.1598386 0 0.12896149 0.70331603 0.6990819 0.054742984
0.38824603 0.77863771 1.1603196 0 0.10126956 0.58869702 0.8019852 0.050955199
0.39357662 0.77692753 1.1597946 0 0.13855788 0.44659531 0.88394248 0.042303666
0.3971779 0.77714276 1.1594883 0 -0.054445285 0.069057919 0.99612588 0.0080028167
0.36951223 0.78359491 1.1589814 0 0.50544697 0.48040348 0.71675372 0.050410334
0.37246919 0.78266901 1.1576324 0 0.26998621 0.50017279 0.82276034 0.063160591
0.37750033 0.78256178 1.1574887 0 0.045503445 0.42721272 0.90300536 0.05569829
0.38279927 0.78296077 1.1583372 0 -0.0399139 0.39417708 0.91816735 0.040339239
0.38757586 0.78270233 1.1588154 0 0.00065526873 0.2955195 0.95533651 0.046463367
0.39357489 0.78196436 1.1589521 0 -0.011360979 0.12215011 0.9924466 0.032091659
0.39716658 0.78230202 1.1596216 0 -0.10139477 -0.0050414708 0.99483347 0.0055293124
0.36754581 0.78810823 1.1581204 0 0.53766555 0.33429906 0.77405423 0.04357126
0.37202251 0.78694993 1.1562653 0 0.22328915 0.278685 0.93406457 0.054046053
0.37741435 0.78726268 1.1564741 0 -0.012141171 0.21675506 0.97615051 0.038121283
0.38281277 0.78784525 1.1574681 0 -0.11530534 0.17765968 0.97731352 0.031339686
0.38816962 0.78666669 1.1585102 0 -0.084958807 0.10960303 0.99033791 0.029080465
0.3925896 0.78795201 1.159103 0 -0.11421897 0.014328095 0.99335229 0.0049318727
0.36715782 0.79240298 1.1569502 0 0.45703852 0.23920998 0.85667634 0.045461718
0.37198871 0.79204607 1.1560944 0 0.20480284 0.15446569 0.96653825 0.044548061
0.37741908 0.79252708 1.1566594 0 -0.054359674 0.055761084 0.99696326 0.012610844
0.38280791 0.79303622 1.1575733 0 -0.14193568 0.033807628 0.9892984 0.0039396645
0.38637739 0.79164869 1.1581973 0 -0.13669495 0.021291878 0.99038434 0.0045791185
0.39198142 0.79249108 1.1591803 0 -0.14150843 0.00083474169 0.98993671 0.00028855767
0.3971824 0.79269505 1.1598966 0 -0.13653645 -0.00084493932 0.99063468 0.00034949085
0.36284798 0.79718405 1.1589686 0 0.66110957 0.21373862 0.71920091 0.036019139
0.36683646 0.79702389 1.1560843 0 0.36204761 0.14516401 0.9207871 0.040020362
0.37198749 0.79718399 1.1559054 0 0.11740817 0.08460094 0.98947358 0.032365892
0.37742123 0.79770112 1.1568854 0 -0.10928558 0.014469314 0.99390507 0.0015348933
0.38278741 0.79819137 1.1577183 0 -0.14244823 0.0019188537 0.98980039 0.00014227464
0.38636681 0.79680008 1.1582682 0 -0.14441951 0.0038115855 0.98950922 0.00018353651
0.39193487 0.79755706 1.1590736 0 -0.14334266 0.006387312 0.98965251 0.00027407371
0.39714438 0.79777759 1.1597798 0 -0.13752174 0.003398689 0.99049294 0.00037028635
0.36335179 0.8031885 1.1571455 0 0.54651678 0.12621853 0.82788181 0.053890277
0.36731276 0.80144936 1.1558331 0 0.29754835 0.095803127 0.94988775 0.034661524
0.37200782 0.80233997 1.1558812 0 0.052172031 0.035541642 0.99800545 0.029040139
0.37741977 0.80284917 1.1568974 0 -0.1159966 0.0043305228 0.99324018 0.00073221646
0.3827903 0.80162436 1.1576978 0 -0.14235486 0.00028821328 0.98981565 0.00015270308
0.38637009 0.80195129 1.1582463 0 -0.14124052 -0.00038068576 0.98997521 0.00018547039
0.39187387 0.80262262 1.1590469 0 -0.14046171 0.0026559117 0.99008256 0.00031158354
0.3971462 0.80293787 1.1597822 0 -0.13858543 -0.0017250542 0.99034899 0.0003807116
0.36372086 0.80734944 1.1567189 0 0.5185836 0.064631157 0.85258073 0.056773957
0.36843753 0.80717278 1.1557084 0 0.17797913 0.016083157 0.98390281 0.027713932
0.37203175 0.80748677 1.1559794 0 0.0078192167 0.019853294 0.99977231 0.018005729
0.37741596 0.80799621 1.1569396 0 -0.12342871 0.00039152295 0.99235338 0.0002868998
0.38278943 0.80677384 1.1577033 0 -0.14255443 -0.0020413029 0.98978484 0.00014619424
0.38636991 0.80710268 1.158247 0 -0.14172393 -0.0051062619 0.98989308 0.00020012044
0.39187625 0.8077814 1.1590397 0 -0.14414833 -0.0069285338 0.98953182 0.00029512917
0.39714357 0.80809146 1.1597821 0 -0.14203374 -0.0079546813 0.98982984 0.00033883608
0.36367017 0.81235832 1.1565281 0 0.46512222 -0.0085942885 0.88520473 0.058854569
0.36840606 0.81231707 1.1555549 0 0.17388742 -0.0052900738 0.98475134 0.039088622
0.372017 0.81265116 1.1559099 0 0.014133799 0.00066926068 0.99989986 0.028455008
0.37682 0.81251544 1.1568426 0 -0.12102816 0.0010235243 0.99264854 0.00034710855
0.38278654 0.81192333 1.1577227 0 -0.14383996 -0.0026074061 0.9895975 0.00015335515
0.38636479 0.81225383 1.1582797 0 -0.14618427 -0.0072188447 0.98923105 0.00020642325
0.39198378 0.81312156 1.1591725 0 -0.14479208 -0.012711957 0.98938042 0.00029004179
0.3971273 0.81324798 1.1598938 0 -0.13630517 -0.0092199622 0.99062401 0.00043884135
0.36371931 0.81742364 1.1569133 0 0.5356577 -0.078859419 0.84074491 0.054227579
0.36841005 0.81747818 1.1556026 0 0.18626137 -0.071852535 0.97986931 0.046169247
0.37202585 0.81784201 1.1558679 0 0.019026045 -0.092000484 0.99557716 0.026776649
0.37801585 0.81720108 1.1570046 0 -0.13082755 0.00039960686 0.99140507 0.00045515632
0.38278389 0.81707269 1.1577401 0 -0.14681499 -0.0026474542 0.98916042 0.00019532068
0.3863599 0.81740487 1.1583111 0 -0.15229294 -0.0055988072 0.98831952 0.00024802142
0.39137197 0.81764996 1.1591754 0 -0.14713158 -0.011476674 0.98905033 0.00033478028
0.36384341 0.82105845 1.1569954 0 0.50646353 -0.13139389 0.85219151 0.05348086
0.36848336 0.82084966 1.1559958 0 0.24420479 -0.097705342 0.96478891 0.041454587
0.37203479 0.82121265 1.1563181 0 0.084060177 -0.1971772 0.97675741 0.028475933
0.37741807 0.82172126 1.1569186 0 -0.11695401 -0.017714286 0.99297935 0.00093738653
0.38279101 0.82222241 1.1576914 0 -0.15001938 0.01617155 0.98855078 0.00022503108
0.38636199 0.82255685 1.1582938 0 -0.16155434 0.018306304 0.98669404 0.00033583943
0.3925572 0.8223446 1.1594297 0 -0.15808643 0.0097869663 0.98737675 0.00051474269
0.32590657 0.77739608 1.1626427 0 0.70353895 -0.70906413 -0.047549885 0.00097349082
0.3723622 0.77748191 1.1627309 0 -0.28533983 -0.8345803 -0.47122917 0.060290486
0.37752944 0.77708691 1.1625006 0 0.055110913 0.87979138 0.4721545 0.055550124
0.38290605 0.7787056 1.1609225 0 0.039201837 0.722619 0.69013405 0.047912292
0.40258044 0.77762181 1.1602595 0 -0.12964071 -0.022410851 0.99130774 0.00023999096
0.40798807 0.77809793 1.1609973 0 -0.13052423 -0.037974451 0.99071759 0.00024653025
0.41159087 0.7766909 1.1615328 0 -0.13013577 0.058576226 0.98976439 0.00019756884
0.41701758 0.77716929 1.1622154 0 -0.1327384 0.04793372 0.98999137 0.0001807185
0.4224484 0.77764744 1.1629126 0 -0.13084982 0.031374793 0.99090564 0.00011790797
0.42789033 0.77812678 1.1635848 0 -0.13203326 -0.025912276 0.99090654 0.00031426095
0.43331894 0.77687597 1.1644008 0 -0.13743237 0.044839121 0.98949575 0.00026286286
0.43694291 0.77719557 1.1649303 0 -0.16849945 0.076892965 0.98269802 0.0009331606
0.36673918 0.78396165 1.1621805 0 0.67413026 0.51795405 0.52656615 0.047633316
0.4025515 0.78277862 1.1604873 0 -0.12737714 -0.034685083 0.99124771 0.00037007421
0.40795434 0.78326041 1.161258 0 -0.13067405 -0.031825248 0.99091446 0.0003507401
0.41157666 0.78185713 1.1616474 0 -0.13230319 -0.036410831 0.99054033 0.00029594841
0.41699502 0.78233778 1.1624033 0 -0.12908557 -0.033988204 0.99105084 0.00031999379
0.42242688 0.78281939 1.1630961 0 -0.12733257 -0.029595055 0.99141848 0.00030121108
0.42726219 0.78267318 1.1636995 0 -0.13061731 -0.028722581 0.99101675 0.00039589225
0.43330783 0.78205776 1.1644982 0 -0.13213906 -0.026438272 0.99087852 0.00036568998
0.43693951 0.78238064 1.1649673 0 -0.14482638 -0.0045189792 0.98944676 0.00065237511
0.36394274 0.78867489 1.1639662 0 0.76497197 0.41580406 0.49185854 0.025567053
0.36646444 0.786228 1.1603209 0 0.6455096 0.43510398 0.62769568 0.052632738
0.39737293 0.7878173 1.1599457 0 -0.13512237 -0.006658785 0.99080652 0.00034323445
0.40218389 0.78767401 1.1605319 0 -0.12885079 -0.011171596 0.99160105 0.00036958919
0.40819281 0.78706187 1.1613735 0 -0.1323263 -0.0074989269 0.99117786 0.00038328761
0.41180432 0.78738374 1.1618525 0 -0.12883478 -0.004729135 0.99165481 0.00041900855
0.41723597 0.78786814 1.1625191 0 -0.12726098 -0.0074906675 0.99184096 0.00030953329
0.42267746 0.78835261 1.1631595 0 -0.12867263 -0.0068604453 0.9916634 0.00038994924
0.42862925 0.78762132 1.1639836 0 -0.12816899 -0.0046805646 0.9917413 0.00030662894
0.43356103 0.78759629 1.1645825 0 -0.12766184 -0.0069388319 0.99179345 0.00032323247
0.36277029 0.79249054 1.1627911 0 0.7686733 0.33864221 0.54264432 0.029320782
0.403229 0.79213142 1.1606268 0 -0.13048171 -0.0025830616 0.99144733 0.00041600622
0.40807757 0.79205042 1.1612972 0 -0.13122109 -0.0055320845 0.99133772 0.00043797895
0.41169155 0.79237425 1.1617557 0 -0.13029441 -0.0069829011 0.99145079 0.0004125461
0.41708553 0.79281098 1.1624255 0 -0.12756146 -0.007096522 0.99180526 0.00036284138
0.42242944 0.79316854 1.1630882 0 -0.12565458 -0.0040225158 0.99206591 0.00033928582
0.42786285 0.79193038 1.163819 0 -0.13056852 -0.0086914906 0.9914012 0.00040547893
0.43330589 0.79241574 1.1645243 0 -0.12612222 -0.0092070736 0.99197197 0.00034616407
0.43694067 0.79274046 1.1649809 0 -0.1232907 -0.0086376434 0.99233299 0.0002779366
0.36076573 0.79700774 1.1635653 0 0.76978141 0.27129588 0.57778472 0.032266878
0.4025518 0.79654551 1.1604862 0 -0.12982315 0.00044853878 0.99153703 0.00044274764
0.40796018 0.7970345 1.161218 0 -0.13333037 -0.0071806349 0.99104565 0.000456996
0.4115712 0.79735953 1.1616938 0 -0.13056415 -0.0096739493 0.99139267 0.00041774358
0.41699493 0.79784966 1.1624041 0 -0.12700705 -0.00348681 0.99189568 0.00041145881
0.42242318 0.79833859 1.1631181 0 -0.12876999 -0.0088502262 0.99163496 0.00036642217
0.42793444 0.79720539 1.163813 0 -0.13125879 -0.012705739 0.99126673 0.00039514873
0.43342814 0.79777741 1.1645907 0 -0.12543204 -0.010062392 0.99205118 0.00034629507
0.43693459 0.7961939 1.1650245 0 -0.12225511 -0.014281513 0.99239594 0.00027550495
0.3599892 0.80294091 1.162011 0 0.73734403 0.16047974 0.65617836 0.027907167
0.40278754 0.80206746 1.1606005 0 -0.13604881 0.0029208735 0.9906978 0.00040812249
0.40818056 0.80256099 1.1614687 0 -0.13869955 -0.0024197376 0.99033153 0.00043284375
0.41179058 0.80288947 1.161962 0 -0.12929185 -0.0021166778 0.99160433 0.00046106905
0.4166292 0.80275303 1.1624659 0 -0.12692963 -0.0032237433 0.99190646 0.00041088858
0.42266634 0.80215263 1.1632471 0 -0.13205442 -0.0056272098 0.99122649 0.00039317668
0.42809013 0.8026458 1.1640757 0 -0.13707051 -0.012362448 0.99048412 0.00038492677
0.43352616 0.80313903 1.1648555 0 -0.1299379 -0.015843987 0.99139553 0.00036520293
0.35987732 0.80753702 1.1612893 0 0.7224586 0.096739113 0.68461317 0.03040245
0.40278772 0.80723411 1.1605988 0 -0.13493119 -0.006704899 0.99083227 0.00047400899
0.40818709 0.80772889 1.1614213 0 -0.13590458 -0.0053131687 0.9907077 0.00045992827
0.41179788 0.80805898 1.161906 0 -0.12864833 -0.0016877409 0.99168885 0.00048653237
0.41780668 0.80742121 1.1626309 0 -0.12569174 -0.0022094839 0.99206686 0.00037344216
0.42253786 0.80715126 1.1632718 0 -0.13323045 0.0050046388 0.99107248 0.00039522172
0.42802894 0.80773193 1.1640422 0 -0.13861373 0.0042955461 0.99033719 0.00036589862
0.43352148 0.806593 1.1648912 0 -0.13237604 -0.00038801445 0.99119949 0.00037936086
0.35885894 0.81205136 1.1630868 0 0.68965238 0.032055322 0.72343075 0.036206733
0.4025456 0.81203079 1.1605448 0 -0.12970999 0.0009456111 0.99155152 0.00048182372
0.4079504 0.81252682 1.1612763 0 -0.13286611 0.0070706131 0.99110878 0.00051215594
0.41156453 0.81286204 1.1617448 0 -0.12668711 0.012546731 0.99186337 0.00040749781
0.41638553 0.81273019 1.1623737 0 -0.12674725 0.0057100356 0.99191862 0.00041852865
0.42242411 0.81213754 1.1631163 0 -0.13103977 0.0073368349 0.99134994 0.00036647217
0.42786181 0.81263632 1.1638141 0 -0.13607296 0.011448147 0.99063265 0.00031620328
0.43353876 0.81177342 1.1647614 0 -0.13499157 0.011519106 0.99077976 0.0002850758
0.35957286 0.81795508 1.1609985 0 0.69102722 -0.12307069 0.71227449 0.032413337
0.39736453 0.81705922 1.1600085 0 -0.13556437 -0.010431993 0.9907136 0.00045335598
0.40278068 0.8175599 1.1606349 0 -0.11626754 -0.0065343459 0.99319643 0.00055892661
0.40820253 0.8180601 1.1612978 0 -0.12599693 0.00084223709 0.99203026 0.00056718272
0.41181928 0.81839526 1.1617405 0 -0.13088664 0.0033321418 0.99139172 0.00055453664
0.41775879 0.81768161 1.1625584 0 -0.13018824 -0.00079946406 0.99148899 0.00044838319
0.42255116 0.81749231 1.1631312 0 -0.12564057 -0.0010383371 0.99207526 0.00041175014
0.42793047 0.81790394 1.1637939 0 -0.13436922 0.000179311 0.99093133 0.00037518356
0.43329582 0.81658977 1.164598 0 -0.13494007 0.0062379036 0.99083412 0.00031467318
0.36004081 0.82195091 1.1620464 0 0.64814723 -0.28663185 0.70551211 0.029752823
0.39735538 0.82221901 1.1600727 0 -0.13168803 0.039124679 0.99051881 0.00057567609
0.40268013 0.82255709 1.1605531 0 -0.11766796 0.10404621 0.98758727 0.00050151756
0.40796393 0.82285213 1.1611874 0 -0.13027342 0.11196984 0.98513532 0.00061045814
0.41157681 0.82318902 1.1616445 0 -0.14733323 0.097204402 0.98429883 0.000562342
0.41723257 0.822348 1.1625494 0 -0.13645419 0.0094952583 0.99060088 0.00047610328
0.42265546 0.82285351 1.1633269 0 -0.13106582 0.02267288 0.99111438 0.00046915477
0.42798823 0.82317293 1.1638528 0 -0.12751465 -0.0039920141 0.99182868 0.00052587991
0.43330026 0.82176805 1.1645691 0 -0.13094823 -0.0048042927 0.99137759 0.00045056912
0.36109981 0.82558835 1.1636618 0 0.51783359 -0.54004908 0.66347224 0.030081224
0.4169997 0.82542121 1.1623703 0 -0.15274481 0.08583992 0.98453063 0.00051465869
0.42266843 0.82630616 1.1632179 0 -0.14134203 0.041089017 0.98910773 0.00045141191
0.42791247 0.82651198 1.1638333 0 -0.12921099 0.027676325 0.99123085 0.00051894604
0.43330166 0.82694733 1.1645678 0 -0.12292137 0.012263032 0.99234062 0.00046047373
0.37302658 0.77552801 1.1687336 0 -0.25092319 -0.93623865 -0.24595678 0.036738437
0.36919671 0.77796364 1.1681868 0 -0.50375837 -0.82407784 -0.25908142 0.035204999
0.37169167 0.77634674 1.1665909 0 -0.33827138 -0.89738393 -0.28332767 0.048815291
0.37860626 0.77609438 1.1659578 0 0.066464171 -0.98001885 -0.18747158 0.067610852
0.38195321 0.7766965 1.1648369 0 -0.073688045 -0.95140487 -0.29899645 0.050545704
0.44245934 0.77777731 1.1657411 0 -0.2872732 0.12017912 0.95027947 0.012274769
0.44811118 0.77738583 1.1678557 0 -0.44063851 0.29851562 0.84659678 0.029603008
0.36535385 0.78386486 1.1667691 0 0.75256431 0.56025362 0.34606761 0.025022648
0.36701071 0.78115106 1.166779 0 0.67661041 0.65796131 0.33058324 0.029395537
0.44241226 0.78286129 1.1655532 0 -0.19975731 0.057694927 0.97814536 0.0077967364
0.44790688 0.78181517 1.1666677 0 -0.32463637 0.22088201 0.91968602 0.0216437
0.45173278 0.78267479 1.1680282 0 -0.40009981 0.29090869 0.86907554 0.032571401
0.45576203 0.78371203 1.1695538 0 -0.48069048 0.35168657 0.80327654 0.022593401
0.36477834 0.78619486 1.1652826 0 0.78091449 0.46580321 0.41617292 0.020341231
0.4371998 0.78791916 1.1650141 0 -0.12433175 -0.003873779 0.99223316 0.00027648412
0.44251406 0.78812927 1.165415 0 -0.15838149 0.027368428 0.98699862 0.0060685477
0.44786745 0.78680289 1.1662887 0 -0.24034065 0.095892496 0.96594048 0.0083898129
0.45156786 0.78722167 1.1668991 0 -0.31010664 0.15613264 0.93779343 0.022638332
0.45753762 0.78860998 1.1689787 0 -0.44441068 0.23618045 0.86412841 0.018804211
0.36203799 0.7909019 1.1671534 0 0.76123309 0.40530008 0.50621742 0.040915847
0.44241124 0.79323053 1.1655616 0 -0.12598175 2.3419148e-05 0.99203259 0.00050339551
0.44790369 0.79197955 1.1661079 0 -0.18695176 0.042461194 0.98145103 0.0062009259
0.45155013 0.79230386 1.1666335 0 -0.2445941 0.071759842 0.96696651 0.009654914
0.45662317 0.7925989 1.1680254 0 -0.36826482 0.13777305 0.91945612 0.01289352
0.4424071 0.79668671 1.1655961 0 -0.11771654 -0.0060895924 0.99302858 0.00036430449
0.44787994 0.79717684 1.1662132 0 -0.14463931 0.0079436321 0.98945254 0.00085984857
0.45153168 0.79750162 1.1666795 0 -0.20185657 0.027676228 0.97902399 0.0037776432
0.45777246 0.79722029 1.1680439 0 -0.35310429 0.081440568 0.93203259 0.0081517985
0.35782617 0.80359817 1.1676453 0 0.64620852 0.17998926 0.74163222 0.055865735
0.4371779 0.8017419 1.1651782 0 -0.11745624 -0.012701232 0.99299681 0.00030843483
0.44252008 0.80205399 1.1657465 0 -0.11022881 -0.013420401 0.9938156 0.0001442892
0.4478693 0.8023656 1.1662964 0 -0.12831359 -0.0021684372 0.99173129 0.0003850676
0.45152268 0.80269402 1.1667099 0 -0.16842225 0.0097886799 0.98566633 0.0017764372
0.45642075 0.8026315 1.167501 0 -0.27949068 0.038944948 0.95935827 0.0075567067
0.4630273 0.80298764 1.1697499 0 -0.49453107 0.083150424 0.8651734 0.0082117319
0.341663 0.80819917 1.1696334 0 -0.053943623 0.089490265 0.99452579 0.0028322886
0.34689832 0.8081882 1.1700017 0 0.035599463 0.098669693 0.99448329 0.018148087
0.35210365 0.80817097 1.1698235 0 0.31386247 0.12290183 0.94148046 0.048371553
0.35611314 0.80776244 1.1681098 0 0.5412755 0.12125248 0.83205688 0.059624117
0.43715969 0.80692428 1.1653328 0 -0.12032066 -0.0020072546 0.99273306 0.00030481146
0.44250798 0.80723792 1.1658506 0 -0.10779109 -0.0035989622 0.99416703 0.00019478249
0.44786799 0.80755228 1.1663028 0 -0.11741149 -0.00033996839 0.9930833 0.00021557028
0.45152488 0.80788463 1.1666964 0 -0.15595528 0.0021995157 0.98776168 0.0010619622
0.45764488 0.80736542 1.1676607 0 -0.27875566 0.021999666 0.96011007 0.0047469414
0.4629187 0.80796593 1.1693989 0 -0.46616736 0.037499655 0.88390142 0.0092904428
0.34158725 0.81321824 1.1694772 0 -0.0038881251 -0.010221717 0.99994022 0.0024392931
0.34688127 0.81320357 1.1699309 0 -0.05972277 0.0094252909 0.9981705 0.028881621
0.35208714 0.81322646 1.1696697 0 0.29131299 6.3506768e-06 0.95662779 0.056303095
0.3549681 0.81319451 1.1683251 0 0.58396381 0.00055749755 0.8117795 0.056303095
0.43716812 0.81210715 1.1652657 0 -0.12507132 0.007430362 0.99211991 0.00033807743
0.44250873 0.81242388 1.1658432 0 -0.110359 0.0054411064 0.99387687 0.00027422732
0.44786727 0.81273985 1.1663096 0 -0.11363885 4.2335028e-05 0.99352211 0.00011596768
0.45152551 0.81307387 1.166687 0 -0.15254995 -0.0026820388 0.9882921 0.0011593216
0.45701408 0.81188804 1.1675253 0 -0.25942835 0.0017009692 0.96576083 0.004756426
0.46285805 0.8130995 1.1693709 0 -0.45143676 0.0036896144 0.89229548 0.0054477123
0.34689787 0.81677306 1.1698979 0 -0.12353966 -0.0061444337 0.9923206 0.028843589
0.35210392 0.81679934 1.1697606 0 0.26391175 -0.063229419 0.96247214 0.057073992
0.35640007 0.81711835 1.167329 0 0.57763159 -0.10096155 0.81002992 0.054956358
0.43717894 0.81729007 1.1651795 0 -0.12736826 0.0064252154 0.9918347 0.00032009135
0.44251236 0.81760949 1.1658118 0 -0.11352689 0.0048410557 0.99352312 0.00027222896
0.44786638 0.81792724 1.1663144 0 -0.11779128 -0.0028476957 0.9930343 0.00022593529
0.45152193 0.81826365 1.166708 0 -0.15502842 -0.0061133197 0.98789108 0.0011715201
0.45701066 0.81709361 1.1675839 0 -0.25965956 -0.01240087 0.96562058 0.0043290369
0.4628711 0.81660211 1.1694509 0 -0.44933328 -0.018371386 0.8931753 0.0048163161
0.43718353 0.82247442 1.1651413 0 -0.12638088 -6.781199e-05 0.9919818 0.00040098763
0.44251564 0.82279527 1.1657853 0 -0.11747345 0.00086631184 0.99307567 0.00032847215
0.44786465 0.82311469 1.1663271 0 -0.12141355 -0.0083232671 0.99256712 0.00029057101
0.45152053 0.82172346 1.1667173 0 -0.15935776 -0.0069160806 0.98719668 0.0012749837
0.45702004 0.82232893 1.1677107 0 -0.26972288 -0.023624238 0.96264815 0.0047397926
0.4630475 0.82208622 1.1698107 0 -0.47366959 -0.052496579 0.87913662 0.0049553341
0.43718147 0.82765949 1.1651576 0 -0.12181114 -0.0065052779 0.99253196 0.00039919777
0.44251257 0.82798135 1.1658131 0 -0.12623446 -0.0075917421 0.99197137 0.00043396649
0.44785979 0.82830197 1.166364 0 -0.13382079 -0.011826637 0.99093497 0.00037309891
0.45151469 0.82691288 1.1667533 0 -0.1681736 -0.0062000132 0.98573792 0.0015087714
0.45712343 0.82768434 1.1678851 0 -0.26196191 -0.012427453 0.96499819 0.0016579872
0.32430905 0.77613801 1.1708523 0 0.92982292 -0.36538666 0.043839261 0.026224837
0.37040871 0.77696913 1.1712861 0 -0.38516387 -0.89989787 -0.20453021 0.03523472
0.45792601 0.77876794 1.1750132 0 -0.58591837 0.60423166 0.54000348 0.01278972
0.32914129 0.78219771 1.1748805 0 0.65822715 -0.60207939 -0.45192632 0.072794475
0.45420289 0.77969217 1.1707122 0 -0.523453 0.46577671 0.71347672 0.024944944
0.45672417 0.78034127 1.1722432 0 -0.56508172 0.50758123 0.65041828 0.018166585
0.46097937 0.78310823 1.1737335 0 -0.61422127 0.4797129 0.62658417 0.018027294
0.33156916 0.78732842 1.1721797 0 -0.6898616 0.49636427 0.52698529 0.060802598
0.3378644 0.78877872 1.1742792 0 -0.16778573 0.43528512 0.88451952 0.010846485
0.34310684 0.78892457 1.1745487 0 -0.041376449 0.4126209 0.90996265 0.0067437771
0.34654137 0.78888142 1.1745341 0 -0.0010358025 0.40817377 0.91290367 0.0027956155
0.35176998 0.78890336 1.1745797 0 0.049194716 0.42395097 0.90434808 0.014405776
0.35711104 0.78907859 1.1748163 0 0.33527425 0.50798285 0.79343849 0.069969408
0.36137214 0.78804326 1.1736385 0 0.45523277 0.55546701 0.69585884 0.064665169
0.46005327 0.78648907 1.1709777 0 -0.55459666 0.35578996 0.75222075 0.018566953
0.46514055 0.78889936 1.1744844 0 -0.73600841 0.35749206 0.57488352 0.010147176
0.33733997 0.79280818 1.172519 0 -0.25060612 0.37225917 0.89365524 0.0090225982
0.34259483 0.79304391 1.1729784 0 -0.053802412 0.33535498 0.94055426 0.0062777954
0.34779856 0.7929979 1.172902 0 0.0037566384 0.33688 0.94154012 0.0015667815
0.35313028 0.79321599 1.1733078 0 0.2014336 0.3941831 0.89668512 0.052075449
0.35753381 0.79340649 1.1725997 0 0.45051914 0.42704311 0.78400683 0.069908187
0.36071566 0.79060793 1.1719688 0 0.55582744 0.51001465 0.65646088 0.074556634
0.46406707 0.79255223 1.1722151 0 -0.65843844 0.23554073 0.71482819 0.0086974036
0.33872762 0.79724818 1.1713532 0 -0.13651732 0.26285174 0.95512933 0.0063264365
0.34222171 0.79737884 1.1716803 0 -0.071364157 0.25511333 0.96427399 0.0054542408
0.34740031 0.7973057 1.1715907 0 0.017745569 0.27471995 0.96136051 0.0025195894
0.35267252 0.79737914 1.1717736 0 0.27171904 0.31428492 0.90961188 0.047634829
0.3574059 0.79698145 1.1709032 0 0.50267249 0.36194816 0.78505665 0.069489509
0.46331853 0.79827183 1.1704446 0 -0.55332762 0.13516316 0.82192427 0.0081520639
0.46857968 0.79959029 1.1749207 0 -0.78270143 0.17800863 0.59639865 0.0062962547
0.33850226 0.80021465 1.1706218 0 -0.1551014 0.20475061 0.96644747 0.0068252096
0.3418957 0.80180651 1.1705093 0 -0.0096826321 0.18611921 0.98247945 0.0029906132
0.34709492 0.80179781 1.1705389 0 0.020827016 0.19105816 0.98135775 0.0044174097
0.35237235 0.80186713 1.1707706 0 0.31096947 0.23988189 0.91964918 0.044036526
0.35655776 0.80104953 1.1700115 0 0.48975077 0.27534103 0.82724333 0.064279512
0.46817049 0.8023321 1.1738153 0 -0.74344766 0.12924668 0.65618658 0.0048068431
0.46776286 0.806867 1.1728314 0 -0.70553267 0.067602731 0.70544565 0.0053543644
0.46757373 0.81179202 1.1724478 0 -0.6870482 0.014397073 0.72646922 0.0044942629
0.46774513 0.81724465 1.1727289 0 -0.69073701 -0.047207695 0.72156346 0.0043791649
0.3470566 0.82254797 1.1702887 0 -0.080931991 -0.14352515 0.98633188 0.0070347697
0.3524507 0.82245046 1.1706889 0 0.12896785 -0.18773444 0.97371614 0.062889159
0.35650697 0.82331991 1.1698333 0 0.51948559 -0.25308308 0.81613952 0.059139796
0.35285953 0.82858342 1.1719936 0 -0.089900613 -0.1832823 0.97894102 0.070111878
0.35763407 0.8287937 1.1713674 0 0.4250178 -0.2844775 0.85932094 0.080691092
0.45602727 0.77428114 1.1787462 0 0.71006113 -0.52629727 -0.46778667 0.01144725
0.32716304 0.77743155 1.1784564 0 -0.6729638 0.62279928 0.39904991 0.042354915
0.36871102 0.77787274 1.1793823 0 -0.43141893 -0.75778216 -0.48953441 0.067205951
0.3716152 0.77652121 1.1771855 0 -0.3294411 -0.89544439 -0.29941264 0.044204514
0.45731992 0.77722591 1.176244 0 -0.58320326 0.65144998 0.48526993 0.01278972
0.33253369 0.78178793 1.1778619 0 -0.39147323 0.62069464 0.67932826 0.033260722
0.33708146 0.78241354 1.1778919 0 -0.11242955 0.56629032 0.81650162 0.0073058871
0.34232587 0.78253645 1.1780759 0 -0.034729928 0.5347051 0.84432477 0.0062034195
0.34754586 0.78241736 1.177896 0 0.0028517034 0.51860279 0.85501051 0.0020259169
0.35278577 0.7824412 1.1779336 0 0.011458702 0.52193356 0.85290915 0.0025858162
0.35817263 0.78287601 1.1784321 0 0.17518358 0.61594594 0.76806337 0.043383185
0.36258447 0.7827912 1.1775926 0 -0.39317244 -0.66878003 -0.63099027 0.055442944
0.36671183 0.78086013 1.1768749 0 -0.52822888 -0.7159723 -0.45646232 0.061229024
0.46280915 0.78072613 1.1779734 0 -0.69147664 0.56211907 0.45374238 0.012953084
0.33315811 0.78560501 1.1748019 0 -0.49978843 0.55752242 0.66285765 0.036233786
0.33821392 0.78619039 1.1756763 0 -0.1307953 0.48278281 0.86591762 0.0097613707
0.34342018 0.78629792 1.1758931 0 -0.041051172 0.46154934 0.88616419 0.007393125
0.34691527 0.78624189 1.1757859 0 -0.00053639518 0.45321044 0.89140338 0.0024654856
0.35215178 0.78631473 1.1759119 0 0.036702063 0.47508183 0.8791759 0.012267604
0.35749289 0.78650349 1.1761059 0 0.27287999 0.56332409 0.77987337 0.061970141
0.36219436 0.78571522 1.1752336 0 -0.45429108 -0.60707474 -0.65198153 0.068633825
0.46615684 0.78718269 1.1771568 0 -0.77821457 0.42997473 0.4577159 0.010842437
0.46936116 0.79741007 1.1768315 0 -0.83852518 0.21385494 0.5011403 0.0045286538
0.32830948 0.77399158 1.1837889 0 0.28473321 -0.73987132 -0.60952228 0.054590281
0.33177137 0.77422589 1.1840411 0 -0.062842786 0.72074658 0.69034427 0.0067249681
0.33704257 0.77431089 1.1841521 0 -0.016499504 0.6803565 0.73269558 0.0047519733
0.34232706 0.77421016 1.1840343 0 0.0023017616 0.66733372 0.74475527 0.00066015357
0.34758109 0.77417779 1.1839855 0 0.0029416995 0.66765124 0.74446839 0.00065874134
0.35284722 0.77417773 1.1839852 0 0.0019223533 0.66857767 0.74363989 0.00061592454
0.35811615 0.77424461 1.1840703 0 0.0089190034 0.67382616 0.73883611 0.0014613268
0.3634567 0.7744934 1.1843181 0 0.06874086 0.71222591 0.69857639 0.038214095
0.3669219 0.77431697 1.1841034 0 -0.15500931 -0.70542186 -0.69163007 0.044008307
0.37199026 0.77382034 1.1833121 0 -0.31602275 -0.76843917 -0.55644482 0.091757149
0.32793614 0.77575809 1.1812558 0 -0.47316396 0.71128798 0.51979351 0.059164681
0.33272725 0.77769196 1.181304 0 -0.25082386 0.6697455 0.69894803 0.035213161
0.33801582 0.77771109 1.1813446 0 -0.046164773 0.6274969 0.77724928 0.0058279466
0.34261039 0.7780053 1.1809204 0 0.00021889992 0.59905154 0.80071044 0.0012199475
0.34743115 0.7772032 1.1814736 0 0.0026577422 0.61296797 0.79010332 0.0012223067
0.35201639 0.77758306 1.1811647 0 0.0018350264 0.606475 0.79510045 0.0012134991
0.35727355 0.77760309 1.1811941 0 0.016319754 0.61401647 0.78912443 0.0021365685
0.36263716 0.77790517 1.1815249 0 0.17493999 0.69452965 0.69787145 0.053802889
0.36718655 0.7770012 1.1812395 0 -0.3637048 -0.75177842 -0.55004358 0.085693426
0.37270924 0.77517736 1.1802038 0 -0.42286235 -0.83196974 -0.35918495 0.067744747
0.33236885 0.77211958 1.1861923 0 -0.016680026 0.74828881 0.6631633 0.0034760367
0.33765724 0.77210999 1.1861883 0 0.002273412 0.72610146 0.6875838 0.0024664379
0.34294397 0.77202183 1.1860826 0 8.0591213e-05 0.71390802 0.70023948 0.00045647661
0.34817761 0.77200973 1.1860421 0 0.0017409953 0.71182013 0.70235968 0.00049901888
0.35345265 0.77200878 1.1860404 0 0.0013764416 0.70940065 0.70480406 0.00039825356
0.35703149 0.77200818 1.1860769 0 0.0012729362 0.71356189 0.70059103 0.00054018624
0.36227509 0.77218246 1.186249 0 0.025862722 0.7538904 0.65649098 0.0069579775
0.36753759 0.77207649 1.1861145 0 0.089442603 0.78798634 0.60916138 0.0096824309
0.37265942 0.77170181 1.1855668 0 -0.21438245 -0.82304132 -0.52596873 0.014020584
