# .PCD v0.7 - Point Cloud Data file format
VERSION 0.7
FIELDS x y z rgb normal_x normal_y normal_z curvature
SIZE 4 4 4 4 4 4 4 4
TYPE F F F U F F F F
COUNT 1 1 1 1 1 1 1 1
WIDTH 408
HEIGHT 1
VIEWPOINT 0 0 0 1 0 0 0
POINTS 408
DATA ascii
0.013295233 0.17836797 0.34469393 0 -0.30937472 -0.95084399 -0.013528313 0.0023386502
0.023079276 0.17380807 0.34139836 0 -0.53844184 -0.842659 -0.002495162 0.0010846199
0.020259082 0.17545816 0.34171009 0 -0.47081596 -0.88222253 -0.0039610132 0.0013931257
0.015310943 0.1776818 0.34329644 0 -0.352896 -0.9355886 -0.011764887 0.0025452091
0.017172992 0.17694443 0.34162822 0 -0.39703861 -0.91778982 -0.0047081052 0.0025415295
0.010112464 0.1792855 0.34026319 0 -0.23145086 -0.97284651 -0.00039664234 0.0032390496
0.021476626 0.17478311 0.33693755 0 -0.50085628 -0.86552995 0.00094059453 0.0011721618
0.014195561 0.17810521 0.33737317 0 -0.32590771 -0.94540149 -0.00040197381 0.0033475775
0.016197383 0.17735013 0.33594444 0 -0.37418348 -0.92735457 0.00052220706 0.0020519791
0.012166381 0.17874536 0.33881739 0 -0.27708474 -0.96084452 -0.001353991 0.0036677611
0.0063287616 0.17999193 0.33489853 0 -0.13890249 -0.99030602 0.00017826061 0.0015671899
0.023780465 0.17331707 0.33364558 0 -0.56443322 -0.8254751 0.0024533938 0.00048706523
0.01972568 0.17572054 0.33220732 0 -0.45983437 -0.88800359 0.0013932084 0.0015990975
0.014079094 0.17813352 0.33068541 0 -0.32434925 -0.94593734 0.00027610597 0.0022777484
0.009881556 0.17932791 0.33344752 0 -0.22360791 -0.97467911 0.00032231113 0.0021803707
0.023745835 0.17333192 0.32693243 0 -0.55877888 -0.82931644 0.00061163557 0.00064717268
0.019651771 0.17575079 0.3254571 0 -0.45853469 -0.88867635 0.00057362521 0.0017981211
0.016996861 0.17700031 0.32830337 0 -0.3951599 -0.91861218 0.00059064891 0.0017079357
0.010844886 0.17909354 0.32608992 0 -0.24888879 -0.96853197 -0.00046189138 0.003618381
0.0061306357 0.18001854 0.32813054 0 -0.13810951 -0.99041694 0.00017702569 0.0024157073
0.0020700097 0.18040153 0.32889554 0 -0.050389696 -0.9987188 0.0046458128 0.0010656109
0.023715675 0.17336175 0.32013345 0 -0.55452758 -0.8321653 -0.00027132389 0.00099874684
0.020030797 0.17555845 0.32151175 0 -0.46713075 -0.88418818 -0.00042065943 0.0014210028
0.013955712 0.17817837 0.32389393 0 -0.32240105 -0.94660312 -0.00029176398 0.0032406254
0.01599431 0.17741805 0.3224403 0 -0.37140161 -0.92847228 0.00020426346 0.0025901985
0.0083884001 0.17965901 0.32035989 0 -0.19120206 -0.98155063 -0.00032721166 0.003646248
0.0046698451 0.1802122 0.32168478 0 -0.10418814 -0.99455756 -0.00022364281 0.0021306302
0.00027436018 0.18044898 0.32201573 0 8.1832746e-05 -0.99999946 -0.001059797 0.0027005663
-0.0027343631 0.18035105 0.322144 0 0.065850876 -0.99782836 0.0014852602 0.0024679585
0.022915721 0.17388165 0.31443214 0 -0.53622234 -0.84407634 -0.00086043245 0.0013741876
0.025961041 0.17176226 0.31661069 0 -0.60611188 -0.7953791 -0.0006924019 0.00068246899
0.020464838 0.17532486 0.31766975 0 -0.47801986 -0.87834889 -0.00052728038 0.001982023
0.013841093 0.17822486 0.31702414 0 -0.31979069 -0.94748813 0.00042083045 0.0046496629
0.016822219 0.17707586 0.31462696 0 -0.39092833 -0.92042112 0.00015045435 0.0033797254
0.010721803 0.1791375 0.31927866 0 -0.24606776 -0.96925259 -0.00031621972 0.0042787739
0.0044873953 0.18023214 0.31478769 0 -0.099619925 -0.99502558 -6.0667084e-05 0.003592788
-2.4437904e-06 0.18045616 0.31502578 0 0.0070820553 -0.99997479 0.00048885931 0.003027746
0.024443448 0.17286891 0.31205356 0 -0.57325131 -0.81937939 -0.00055476208 0.00066301314
0.025943339 0.17177597 0.30967832 0 -0.60951918 -0.79277104 0.00061967532 0.0009237575
0.019516408 0.1758267 0.31169736 0 -0.45463058 -0.89068002 -0.00037489223 0.0021359355
0.01371336 0.17825291 0.3100585 0 -0.31631842 -0.94865304 0.00025802691 0.0043501751
0.010532558 0.17917362 0.31226522 0 -0.24156919 -0.97038358 -0.00016002412 0.0037524016
0.0069665313 0.17990276 0.31386107 0 -0.15873544 -0.98732102 0.0004712638 0.003720884
-0.005122602 0.18010941 0.31439281 0 0.12838274 -0.99171925 0.0032790764 0.0014597108
-0.0096192956 0.1792644 0.31244624 0 0.23972267 -0.97081918 0.0065742568 0.00082234491
0.023655772 0.17341855 0.30626273 0 -0.55573303 -0.8313607 0.00043191135 0.0011091693
0.027357817 0.17063695 0.30712938 0 -0.64185697 -0.7668224 0.0017399359 0.00065559923
0.019759059 0.17571366 0.3066721 0 -0.45962527 -0.8881129 -0.00019614477 0.0017444985
0.015777171 0.17750174 0.30855075 0 -0.3651453 -0.93095046 0.00044489634 0.0030299043
0.0092236996 0.17947018 0.30583078 0 -0.21134238 -0.9774121 -0.00014922206 0.0030601693
0.0041627288 0.18026468 0.30757862 0 -0.091173254 -0.99583501 0.00014784437 0.0038685044
-0.00028336048 0.18044704 0.30794296 0 0.014799421 -0.99988919 0.0016012097 0.0028680356
-0.003480494 0.18027338 0.3078551 0 0.092230387 -0.99573696 0.0012125425 0.0021898455
-0.0078388453 0.17963487 0.30611765 0 0.20193197 -0.97939587 0.0026911863 0.0014073565
0.022840142 0.17394081 0.30040836 0 -0.53581816 -0.84433341 -9.2798997e-05 0.0018808331
0.025924146 0.17178726 0.3026458 0 -0.61043096 -0.79206812 0.0014668654 0.0011495834
0.021221817 0.17491511 0.30271709 0 -0.49634719 -0.86812389 0.00061201403 0.0019456391
0.013592422 0.17829823 0.30300096 0 -0.3135168 -0.94958258 -0.00038513436 0.0047123474
0.016644537 0.17715845 0.30058423 0 -0.38571593 -0.92261761 5.6148419e-05 0.0036952794
0.0053123832 0.18013567 0.30014426 0 -0.11905104 -0.99288815 0.00011370746 0.0030905285
-0.00056827068 0.18043929 0.30076334 0 0.022290109 -0.99975145 0.00038057569 0.0029340538
-0.0060970187 0.17994165 0.29962337 0 0.15916421 -0.98725188 0.00071265467 0.001011299
0.028683901 0.16943777 0.29729947 0 -0.67881513 -0.73430896 0.00062161312 0.00083352911
0.024387062 0.17290807 0.29796553 0 -0.57416624 -0.8187387 -0.00015045067 0.0014370881
0.025896847 0.17179435 0.2955147 0 -0.61145025 -0.79128283 0.00034065082 0.001396209
0.02026695 0.17543757 0.29654682 0 -0.47281408 -0.88116205 0.00052613905 0.0025727637
0.013464928 0.17832926 0.295849 0 -0.30989078 -0.95077211 -0.0003160623 0.0037513503
0.010210156 0.17925006 0.29806739 0 -0.23344345 -0.97237033 -0.00035963283 0.0028088146
-0.011057794 0.17879605 0.29704845 0 0.29335925 -0.95598859 -0.0051118163 0.0006188273
0.029669046 0.16849661 0.29161736 0 -0.70396763 -0.71023196 -0.00036367364 0.00096579222
0.023584425 0.17345974 0.29201829 0 -0.55462164 -0.8321026 0.00032886927 0.0021564094
0.026241124 0.17152777 0.29122317 0 -0.62017018 -0.78446728 0.00030836556 0.0014405948
0.019310236 0.17593813 0.29037312 0 -0.44861126 -0.89372677 0.00063887308 0.0029723956
0.015555084 0.17758667 0.29428664 0 -0.35980725 -0.93302655 0.00048435878 0.0030604308
0.01747793 0.17679793 0.29240707 0 -0.40591744 -0.91390973 0.0001461077 0.0048663113
0.0088841915 0.17954814 0.29146343 0 -0.20318538 -0.97914028 0.00011228672 0.0036758133
0.0051007867 0.18016633 0.29291087 0 -0.11343411 -0.99354553 -2.5982728e-05 0.0042003971
0.00068831444 0.18045345 0.2934173 0 -0.0072437795 -0.99997354 -0.0006300945 0.0039919545
-0.004330039 0.1801798 0.29304919 0 0.11500704 -0.99336463 0.0002762558 0.0020060667
-0.0088554621 0.17941457 0.29111469 0 0.22495365 -0.97436738 -0.0020120314 0.0016593918
0.030009568 0.16818172 0.28728947 0 -0.70849699 -0.70571077 -0.0020659098 0.00072164601
0.022758245 0.17399222 0.28600466 0 -0.53366143 -0.84569818 -0.00027189514 0.0024373205
0.026629448 0.17122015 0.28706634 0 -0.62816119 -0.77808297 -0.00066818437 0.0017128055
0.021099627 0.17498121 0.2883358 0 -0.49308309 -0.869982 0.00065805507 0.0029864586
0.014396787 0.17802018 0.28780487 0 -0.33234605 -0.94315743 0.00038365438 0.0054392074
0.016457379 0.17723104 0.28616086 0 -0.38137397 -0.92442083 0.00013778376 0.0034853173
0.012274444 0.17870301 0.28939536 0 -0.28231785 -0.9593209 3.5576581e-05 0.0037494907
0.0048606396 0.18018898 0.28553623 0 -0.10798924 -0.99415189 0.00054644863 0.0040700408
0.00040656328 0.18044579 0.28603765 0 -0.0015590977 -0.99999821 0.0010968822 0.0048824186
-0.0048976541 0.1801067 0.28530371 0 0.12861203 -0.99169457 -0.00093050225 0.0024249877
0.0286901 0.16943923 0.28281209 0 -0.67620629 -0.73671126 -0.0012448875 0.0010890403
0.024329901 0.17294985 0.28349566 0 -0.57159072 -0.82053882 -0.00024989736 0.0021513184
0.025858283 0.17182162 0.28097486 0 -0.60826308 -0.79373538 -0.0004276738 0.0019054663
0.020141482 0.1755051 0.28202164 0 -0.46901143 -0.88319206 -8.6319131e-05 0.0024732016
0.014274776 0.1780552 0.28044453 0 -0.32952547 -0.94414669 -0.00010450953 0.0041409526
0.009881556 0.17932895 0.28348595 0 -0.22572903 -0.97419012 -7.6428441e-05 0.0038346401
-0.012375534 0.17846167 0.28143775 0 0.28695694 -0.95794332 0.00052358239 0.0010926531
0.029698789 0.16849908 0.2769731 0 -0.69882578 -0.71529168 -0.00052116608 0.0013226632
0.0319103 0.16618544 0.27544937 0 -0.74930072 -0.66222489 0.0025690901 0.00077854272
0.02350843 0.17349765 0.27738583 0 -0.55085927 -0.83459812 -0.00032618901 0.0028504541
0.026210427 0.17155278 0.27656865 0 -0.61659288 -0.78728217 4.4922479e-05 0.0025135218
0.01916343 0.17600799 0.27566996 0 -0.44575983 -0.89515257 0.00029128365 0.0038542743
0.017304838 0.17687443 0.27776006 0 -0.40006632 -0.9164862 -6.8400223e-05 0.0036063001
0.010888457 0.17907959 0.27539057 0 -0.24976036 -0.96830767 -0.00025490962 0.0032207097
0.0059502125 0.18004885 0.27764636 0 -0.13490167 -0.99085736 -0.0017848284 0.0030744197
0.00012242794 0.18045235 0.27855679 0 0.0057932893 -0.99998128 -0.0019711722 0.0048760264
-0.0053142905 0.18004462 0.27766812 0 0.13319077 -0.99108446 -0.003442903 0.0028687902
-0.010124564 0.17911446 0.27536798 0 0.23991577 -0.9707886 -0.0031423022 0.0011151045
0.030040205 0.16817313 0.27252659 0 -0.7073133 -0.70689934 0.0011261781 0.0012570083
0.031297743 0.16678435 0.26962277 0 -0.73916131 -0.67347407 -0.0085580554 0.0012477892
0.022667289 0.17403474 0.2712065 0 -0.53082609 -0.84747881 -0.0018319507 0.0041074539
0.026601255 0.17124939 0.2722851 0 -0.62565583 -0.78009826 0.0012033067 0.0024044528
0.020976365 0.17504275 0.27357209 0 -0.48915824 -0.87219471 0.00077585061 0.0036579757
0.014155567 0.17810416 0.27298597 0 -0.3263697 -0.94524217 -7.743248e-05 0.0047519668
0.016268313 0.17730951 0.27134123 0 -0.37687787 -0.92626274 0.00060965942 0.003272342
0.0043615699 0.18024713 0.27046651 0 -0.09707357 -0.99527365 -0.0026604857 0.0034676818
-0.00016582012 0.18047288 0.27097067 0 0.011503467 -0.99993318 -0.0011452318 0.0065321536
-0.0035023093 0.18028525 0.27081987 0 0.089000784 -0.99603152 0.00028218722 0.0037471629
-0.016535461 0.17711684 0.27074531 0 0.34211171 -0.93965697 -0.0020766912 0.00023225261
0.028679371 0.16941714 0.26792571 0 -0.67564791 -0.73715806 -0.0098935338 0.0019765494
0.032469928 0.16542131 0.26626942 0 -0.77090073 -0.63668591 -0.018523432 0.0011033551
0.024258852 0.17297325 0.26862788 0 -0.56936759 -0.82206273 -0.0057805832 0.0032156613
0.025776684 0.1717892 0.26603496 0 -0.60846448 -0.79319847 -0.024639988 0.0048755864
0.019991755 0.17553923 0.26709509 0 -0.462906 -0.88631392 -0.012873687 0.004244383
0.013968766 0.177973 0.26541641 0 -0.32229674 -0.94602376 -0.034114994 0.007621197
0.0095364451 0.17937604 0.26850098 0 -0.22224803 -0.97495419 -0.0083754566 0.0036372989
-0.0081303716 0.1795617 0.26880419 0 0.19895095 -0.97999263 -0.0057470514 0.0021183637
-0.013680995 0.17784375 0.2653431 0 0.30859801 -0.95073801 -0.029402982 0.0052195671
0.033473372 0.16384882 0.26288185 0 -0.80540669 -0.58670747 -0.084228113 0.0085101528
0.029610217 0.16835123 0.26191089 0 -0.70221567 -0.70496732 -0.099570319 0.0097527606
0.031863511 0.16603503 0.26032314 0 -0.73494941 -0.66139013 -0.14970805 0.015993459
0.023342729 0.17340583 0.26233459 0 -0.54082227 -0.8362183 -0.090830781 0.011353118
0.026021063 0.17135659 0.26146972 0 -0.60874003 -0.78557545 -0.11093602 0.01830955
0.018921614 0.17589486 0.26053014 0 -0.43668216 -0.88743252 -0.14755391 0.017201688
0.017035961 0.17676243 0.26268891 0 -0.39480257 -0.91519248 -0.080954812 0.0083009358
0.010499358 0.17893207 0.26014143 0 -0.23964967 -0.95883101 -0.15235214 0.014579849
0.005487442 0.17987362 0.26243025 0 -0.1289317 -0.98837054 -0.080624662 0.0091027794
-0.00045496225 0.18002579 0.26322255 0 0.016370365 -0.99914521 -0.037958272 0.011128956
-0.0062972307 0.17966509 0.26181531 0 0.157397 -0.98172301 -0.10698626 0.011263552
0.034172952 0.16438067 0.25594804 0 -0.77104759 -0.55821049 -0.30640936 0.027309574
0.029420555 0.16941616 0.25628087 0 -0.64637762 -0.69962704 -0.30449629 0.0228936
0.032045245 0.16734272 0.25519356 0 -0.6825574 -0.63391274 -0.36368951 0.023825431
0.023961008 0.17406151 0.25540125 0 -0.5174042 -0.78356528 -0.34397429 0.023777727
0.026720047 0.1714792 0.25716209 0 -0.59762824 -0.75534034 -0.2688894 0.023522008
0.01978755 0.17608312 0.25672162 0 -0.44219688 -0.85046226 -0.28491375 0.025579397
0.013952196 0.17831686 0.25780872 0 -0.30676013 -0.92156488 -0.23794189 0.030730065
0.016280591 0.1778042 0.25631776 0 -0.35570043 -0.88647598 -0.29603636 0.0219773
0.0088143349 0.18039685 0.25503999 0 -0.17923231 -0.91489023 -0.36173421 0.023709923
0.0043526888 0.1808351 0.25579423 0 -0.094400555 -0.93841571 -0.33236194 0.026768584
-0.00045013428 0.18092334 0.25606534 0 0.011281495 -0.96011984 -0.27936101 0.017113023
-0.0057271719 0.18069106 0.25554919 0 0.12555419 -0.93409258 -0.33422622 0.025990944
-0.011432528 0.17867362 0.25910032 0 0.27561009 -0.94029665 -0.19970287 0.024245115
-0.0170874 0.1774188 0.25579622 0 0.37408024 -0.87483299 -0.30778429 0.022589073
-0.024067223 0.17360583 0.25487834 0 0.50432384 -0.71032238 -0.49101895 0.003946593
0.034060895 0.16858646 0.25072429 0 -0.63316685 -0.55773842 -0.53668201 0.017535996
0.028489292 0.17482188 0.24973188 0 -0.50621235 -0.64164281 -0.57623225 0.015518488
0.030736327 0.17111024 0.25158283 0 -0.58625567 -0.63399976 -0.5043298 0.016396118
0.02565062 0.17483133 0.25211239 0 -0.5021165 -0.71396732 -0.48798528 0.019668844
0.020111859 0.17949539 0.25042784 0 -0.35960925 -0.75178564 -0.55272013 0.016013369
0.021204412 0.1765292 0.25381565 0 -0.44067511 -0.79881543 -0.40951106 0.024686152
0.014880478 0.1805982 0.25170234 0 -0.28237009 -0.81765181 -0.50170976 0.021999853
0.010712624 0.1810275 0.2528885 0 -0.21046375 -0.86736822 -0.45097387 0.019333722
0.0052396059 0.18251976 0.25217217 0 -0.10716222 -0.86750251 -0.48575267 0.017602673
0.000433743 0.18387038 0.25058052 0 -0.014516437 -0.83764422 -0.54602331 0.01721156
-0.0047863126 0.18463323 0.2494788 0 0.075128116 -0.79701626 -0.59926701 0.01098046
-0.0048116446 0.18258396 0.25211594 0 0.093749404 -0.86599386 -0.49118802 0.0178119
-0.010811031 0.18101665 0.25276768 0 0.2138194 -0.8584916 -0.46612594 0.019521585
-0.014901102 0.18061 0.2516835 0 0.288488 -0.80776662 -0.51408929 0.02087873
-0.019077659 0.18010238 0.25045803 0 0.33045018 -0.72616255 -0.60290182 0.0078812344
-0.022274971 0.17619026 0.25299853 0 0.44076347 -0.71889091 -0.53751594 0.0056958902
-0.027602136 0.17508322 0.25025409 0 0.46315539 -0.60911787 -0.64378762 0.0026927227
-0.030240178 0.17203867 0.25099954 0 0.5176484 -0.57648975 -0.63221806 0.0020613687
-0.033542693 0.16870812 0.2509602 0 0.57183993 -0.49633136 -0.65318775 0.0017455219
0.034208834 0.17464754 0.24574549 0 -0.53483474 -0.55185848 -0.63984686 0.0031526715
0.035491824 0.17054254 0.24780639 0 -0.58610439 -0.50310093 -0.63511503 0.0092241541
0.029021978 0.17958331 0.24537311 0 -0.44926596 -0.62327254 -0.64007139 0.0041634338
0.030491054 0.17554313 0.24770889 0 -0.50868112 -0.59972471 -0.61771661 0.0084349308
0.024067283 0.18294141 0.24540889 0 -0.36956346 -0.67947 -0.63383228 0.0055475407
0.025007308 0.17946124 0.24774706 0 -0.40758219 -0.65769839 -0.63348997 0.0071927123
0.027473271 0.17746535 0.24814855 0 -0.46188214 -0.63785279 -0.61628628 0.0088141141
0.019331813 0.18473253 0.24578466 0 -0.29818961 -0.70671821 -0.64158583 0.005684386
0.021144331 0.18089482 0.24860467 0 -0.35045108 -0.70470917 -0.61690277 0.0081285797
0.015011966 0.18516806 0.24680832 0 -0.23104282 -0.72324914 -0.65079176 0.0040625269
0.0098040104 0.1851033 0.24810593 0 -0.15057531 -0.76121932 -0.63077116 0.0074729971
0.0053175688 0.18938741 0.24474639 0 -0.068429105 -0.76624078 -0.63889945 0.0045564282
0.0051742792 0.18615809 0.24783798 0 -0.078400694 -0.74906838 -0.65783727 0.003091743
0.00048208237 0.18935591 0.24488196 0 0.0049990849 -0.76801443 -0.64041299 0.0042744284
0.00046479702 0.18701687 0.24734268 0 -0.0055149058 -0.75320029 -0.65776819 0.0029973479
-0.0046200156 0.18933821 0.24474953 0 0.066463046 -0.76676297 -0.63848042 0.0042831269
-0.0047097802 0.1870513 0.24718462 0 0.070916891 -0.74857926 -0.65924191 0.0040562069
-0.0081272125 0.1893028 0.24454677 0 0.11112163 -0.76652408 -0.63252896 0.0056680245
-0.0099975467 0.18508419 0.24811912 0 0.1558135 -0.75155854 -0.64100075 0.0048496053
-0.014753878 0.18511122 0.24680318 0 0.2203759 -0.71618676 -0.66220164 0.0049463389
-0.018721163 0.18477502 0.24590364 0 0.27158731 -0.67954457 -0.68151265 0.0036228134
-0.022065282 0.18074855 0.24824171 0 0.34581414 -0.66393673 -0.66302377 0.0030915439
-0.024023831 0.18282121 0.24528748 0 0.33947718 -0.63322103 -0.69554752 0.0032175211
-0.025761068 0.1789768 0.24784225 0 0.39882562 -0.62327975 -0.67265183 0.0029992755
-0.031331599 0.17916995 0.24440286 0 0.43334284 -0.566872 -0.70062125 0.0019658296
-0.030772746 0.17556983 0.24767728 0 0.46706858 -0.56471318 -0.68040133 0.0018130271
-0.034134746 0.17606908 0.24500558 0 0.47418168 -0.53559184 -0.6987797 0.0014437092
-0.035459578 0.17073098 0.24801312 0 0.52114791 -0.49496225 -0.6952821 0.0015919651
-0.037518203 0.17285621 0.24514221 0 0.52631468 -0.48992199 -0.69495988 0.00044762043
0.034845412 0.17953578 0.24152716 0 -0.58965725 -0.63512444 -0.49892008 0.01303116
0.030840814 0.1841144 0.24040291 0 -0.49191985 -0.7214362 -0.48738548 0.01895701
0.030155182 0.18113664 0.2436398 0 -0.47787741 -0.64035594 -0.60131311 0.0088787368
0.023094952 0.18790346 0.24126756 0 -0.35955462 -0.76961964 -0.52764201 0.016674297
0.025743008 0.18600947 0.2419083 0 -0.40014678 -0.72779125 -0.5569582 0.015203216
0.019644439 0.18948048 0.24108328 0 -0.31367984 -0.80375159 -0.50555748 0.015926991
0.021552742 0.18574649 0.24408007 0 -0.33452934 -0.70687121 -0.62323606 0.0067702034
0.015356362 0.19003376 0.24221542 0 -0.24093159 -0.80052477 -0.54873681 0.012768854
0.0086118579 0.19353896 0.23940653 0 -0.13268209 -0.88328266 -0.44967458 0.018899051
0.01006943 0.19006684 0.24355058 0 -0.14370033 -0.78005564 -0.60898554 0.0073971464
0.005453229 0.19372767 0.23966616 0 -0.080390967 -0.88619131 -0.45629179 0.01801339
0.0054038763 0.19173315 0.24231774 0 -0.079226092 -0.80976951 -0.5813747 0.0093115233
0.00061947107 0.19368169 0.23982164 0 -0.0066734673 -0.88713038 -0.46147069 0.023081617
0.00058674812 0.1916796 0.24247834 0 -0.0070797559 -0.8025586 -0.59653127 0.0061225747
-0.0044466853 0.19365534 0.23969685 0 0.065202907 -0.88746798 -0.45623362 0.02002378
-0.0045525432 0.19169539 0.2423421 0 0.066684872 -0.80538207 -0.58899313 0.0071590245
-0.0079420805 0.19351307 0.23938155 0 0.11696553 -0.89141709 -0.43782946 0.014393177
-0.010757327 0.19026476 0.24298561 0 0.15118094 -0.78353518 -0.60267484 0.0058941855
-0.0155316 0.19030809 0.24168184 0 0.24012466 -0.80325538 -0.54508805 0.0090568289
-0.019554257 0.18835688 0.24232773 0 0.30927438 -0.75915742 -0.57273847 0.010485074
-0.021793246 0.18571877 0.24399166 0 0.33356917 -0.70129651 -0.63001174 0.0063356999
-0.023668945 0.18761334 0.24084646 0 0.38898578 -0.76155859 -0.51838076 0.0081230942
-0.026031315 0.18497458 0.24239796 0 0.38573468 -0.70436609 -0.59588355 0.0072879707
-0.029154301 0.18539509 0.23977728 0 0.42738026 -0.75424689 -0.49845535 0.0095990123
-0.028611004 0.18213531 0.24353404 0 0.38664541 -0.59468806 -0.7048769 0.0023229234
-0.034772336 0.17976671 0.24181673 0 0.46192017 -0.55863303 -0.68888235 0.00085575477
-0.039579511 0.17489433 0.2420975 0 0.53851998 -0.49558085 -0.68146592 0.00036176571
0.034513235 0.18360767 0.2365963 0 -0.58245045 -0.75446004 -0.30255827 0.02212771
0.02940917 0.18630266 0.23835741 0 -0.48278451 -0.78509706 -0.38799703 0.0210978
0.025336683 0.1891354 0.23710144 0 -0.42519253 -0.84360796 -0.32792819 0.01969382
0.020620763 0.19118726 0.23742379 0 -0.34196919 -0.87223744 -0.34965545 0.017610034
0.015797198 0.19279 0.23769775 0 -0.26569802 -0.8964209 -0.35473111 0.018670414
0.011643589 0.19325346 0.23894887 0 -0.18711673 -0.88685352 -0.42246673 0.017621581
0.0041607022 0.19518301 0.23512872 0 -0.079098254 -0.94428074 -0.31949535 0.016085776
-0.00053733587 0.19538087 0.23557803 0 0.0032658458 -0.94536752 -0.3259902 0.018281737
-0.0043631196 0.19532692 0.23494111 0 0.077711083 -0.94322067 -0.32294855 0.017237877
-0.01145035 0.19323829 0.23901726 0 0.18220444 -0.88235408 -0.43388116 0.019192457
-0.015829265 0.19282481 0.23758128 0 0.27357897 -0.89718467 -0.34671924 0.01983186
-0.021294534 0.18999845 0.23911421 0 0.35603771 -0.83590716 -0.41772765 0.016272033
-0.038609445 0.18018463 0.23874222 0 0.51017052 -0.54763293 -0.66319239 0.00066636386
0.035220742 0.18387151 0.2311991 0 -0.63701564 -0.75842929 -0.13782631 0.010427197
0.028482854 0.18832147 0.2338724 0 -0.48694578 -0.85007536 -0.20063813 0.016163699
0.030313849 0.18736666 0.23137781 0 -0.53105032 -0.83788741 -0.12621516 0.0092708031
0.02370733 0.19077516 0.23162425 0 -0.41356212 -0.9021886 -0.12256479 0.0081089791
0.021644771 0.19160965 0.2336756 0 -0.37524506 -0.90862095 -0.18330069 0.015157071
0.014822841 0.19381621 0.23089495 0 -0.28089273 -0.94083458 -0.18955097 0.015046664
0.0098630786 0.19479072 0.23364966 0 -0.18681803 -0.9506492 -0.24771982 0.015466127
-0.0082104802 0.19504279 0.23419154 0 0.142354 -0.9463892 -0.28997046 0.017218759
-0.012841642 0.19450796 0.2323835 0 0.24997924 -0.93899953 -0.23619951 0.018359659
-0.023319364 0.19112971 0.23194975 0 0.33266571 -0.92754912 -0.17025325 0.012257003
0.039250135 0.18037713 0.22689432 0 -0.68663001 -0.72678941 -0.017787242 0.00043910783
0.033552349 0.18503192 0.22584495 0 -0.58767682 -0.80843961 -0.032578405 0.0024114079
0.032036185 0.18627897 0.22876701 0 -0.56716436 -0.82081437 -0.067737602 0.0061754365
0.026551723 0.18935516 0.22811721 0 -0.4713223 -0.87811428 -0.082283556 0.0055996156
0.018249273 0.19265249 0.22842027 0 -0.35993034 -0.91519094 -0.18131641 0.027610362
0.020260453 0.19174752 0.22634257 0 -0.40322319 -0.89746028 -0.17881849 0.034656137
0.0095857382 0.19480845 0.22533481 0 -0.21218927 -0.87183785 -0.44144589 0.076427706
0.0053138137 0.19539931 0.22657055 0 -0.10461588 -0.9013263 -0.42031699 0.066992216
0.00069969893 0.19538125 0.2271429 0 -0.015915791 -0.92285931 -0.38480827 0.061648436
-0.0047357678 0.19539297 0.22664927 0 0.14009356 -0.89998925 -0.41278699 0.068698518
-0.011210144 0.19426656 0.22428168 0 0.26723906 -0.83683652 -0.47779483 0.081794068
-0.019341707 0.19177172 0.22711901 0 0.45152861 -0.87446916 -0.17727274 0.052047946
0.039581299 0.18000486 0.22201484 0 -0.69631767 -0.71770853 0.0060208146 0.00099358475
0.035705745 0.18299237 0.22140427 0 -0.62558579 -0.78015524 -0.00042501991 0.010947707
0.029089808 0.18758184 0.22430418 0 -0.54022539 -0.83789021 -0.07808052 0.025305822
0.030530274 0.18618566 0.22151944 0 -0.57807577 -0.81129646 -0.087329462 0.041806955
0.025051475 0.18925259 0.22072732 0 -0.52586144 -0.79691517 -0.29731449 0.071443908
0.022243142 0.1907692 0.22422326 0 -0.4411062 -0.87247068 -0.21028604 0.052963436
0.014293194 0.19900414 0.2190837 0 -0.33933201 -0.52158451 -0.7828176 0.053905305
0.015794516 0.19372091 0.22176066 0 -0.39655194 -0.78558356 -0.47497901 0.079429634
0.0093250275 0.20296717 0.21973412 0 -0.18168195 -0.5035736 -0.84463322 0.045318477
0.01005131 0.19924626 0.21999376 0 -0.24077192 -0.54054546 -0.80612618 0.069163136
0.010899127 0.19584459 0.2222995 0 -0.25713095 -0.80266362 -0.53815866 0.091125973
0.0045740604 0.20318207 0.22027893 0 -0.086462401 -0.55353665 -0.8283245 0.051856827
0.0054649115 0.19945771 0.22074264 0 -0.10811054 -0.57332653 -0.81216305 0.073948979
0.0047632456 0.19768023 0.22238357 0 -0.10054129 -0.72879833 -0.67730677 0.069022335
0.00038462877 0.2047191 0.21925411 0 0.014515426 -0.66199958 -0.74936366 0.05082085
0.00067073107 0.19944304 0.22102246 0 -0.0034550191 -0.59012532 -0.80730426 0.083121069
-0.0003990531 0.19742733 0.22271463 0 0.022640906 -0.63983488 -0.76817876 0.038861681
-0.0038496852 0.20300767 0.22007738 0 0.10747817 -0.53900009 -0.83542049 0.048104342
-0.0043887496 0.19931665 0.22067796 0 0.11778386 -0.58213729 -0.80451423 0.071828179
-0.0040590763 0.1977725 0.22200213 0 0.11486156 -0.73227143 -0.6712566 0.079777569
-0.0075132251 0.20293248 0.219787 0 0.14949855 -0.51412207 -0.84458786 0.05113015
-0.009694159 0.19901484 0.2198416 0 0.22790317 -0.53649819 -0.8125453 0.077199034
-0.0079171062 0.19753647 0.22151804 0 0.18628719 -0.72439426 -0.66373944 0.076568805
-0.01363492 0.19914201 0.21933259 0 0.31669712 -0.50824082 -0.80087095 0.071418859
-0.017193675 0.19321641 0.22075477 0 0.45841241 -0.74590653 -0.48319927 0.10549755
0.039559603 0.17931217 0.21673197 0 -0.71639889 -0.69764972 -0.0075795325 0.017417334
0.033181071 0.18472731 0.21732423 0 -0.66670722 -0.71585763 -0.20748344 0.054679953
0.028050363 0.188146 0.21714149 0 -0.606978 -0.67608917 -0.41770938 0.073691063
0.030218601 0.18747565 0.21489903 0 0.65933162 0.58560181 0.47154254 0.068690591
0.023132622 0.20431435 0.21447361 0 -0.38336438 -0.52934587 -0.75685179 0.023663117
0.02426976 0.19845915 0.21447718 0 -0.47365856 -0.35151523 -0.80751759 0.041592095
0.023682177 0.19451013 0.21536875 0 -0.51598865 -0.46992117 -0.71619117 0.062457517
0.024469376 0.19166654 0.21641421 0 -0.55782473 -0.63275784 -0.53707457 0.073971666
0.01945138 0.2073907 0.21388818 0 -0.22178407 -0.82713461 -0.51639146 0.042488627
0.019037962 0.20491093 0.21608414 0 -0.29993266 -0.60096848 -0.74086255 0.040438987
0.01951617 0.19994065 0.21679486 0 -0.41389096 -0.41997054 -0.80766267 0.043718647
0.019761324 0.19460097 0.21814574 0 -0.48876405 -0.63447422 -0.59879225 0.065507255
0.022050619 0.19240099 0.21807587 0 -0.52160478 -0.68500215 -0.50862604 0.08402881
0.015173197 0.20776391 0.21512178 0 -0.16084905 -0.85915124 -0.48578465 0.05157667
0.014738858 0.20528847 0.21726373 0 -0.22704273 -0.62931728 -0.74324381 0.045320448
0.015089452 0.20209759 0.21786478 0 -0.30797684 -0.49578324 -0.81200325 0.048977699
0.015878856 0.19639409 0.21957126 0 -0.40682632 -0.63590109 -0.655837 0.059829284
0.0091866851 0.20809692 0.21624416 0 -0.086636186 -0.88118571 -0.46476433 0.048103735
0.010947704 0.2046285 0.21845667 0 -0.1855845 -0.59576637 -0.78142238 0.048768759
0.012860477 0.19689956 0.2205954 0 -0.31486359 -0.67862046 -0.66357762 0.063910626
0.0045159459 0.20842096 0.21704872 0 -0.054775275 -0.87346083 -0.48380348 0.049892612
0.0056423545 0.20553142 0.21856338 0 -0.078141987 -0.68085927 -0.72823381 0.051157068
-0.00047117472 0.20847416 0.21710655 0 -0.00073812186 -0.89898312 -0.43798262 0.062315352
-0.0056328177 0.20838398 0.21689175 0 0.060564566 -0.89518434 -0.44156191 0.066040583
-0.0043178797 0.20543173 0.21850966 0 0.072718784 -0.68043357 -0.72919273 0.051989716
-0.0092773438 0.20816192 0.21630871 0 0.10071605 -0.89511353 -0.43431324 0.05891123
-0.010375142 0.20464313 0.2185514 0 0.17056602 -0.59006333 -0.78913403 0.059071805
-0.012206554 0.19686311 0.22069038 0 0.29672182 -0.68023336 -0.67025268 0.0704014
-0.01515162 0.20777568 0.21509674 0 0.1550172 -0.87482423 -0.45896867 0.05140581
-0.015788615 0.20515862 0.21696916 0 0.24543427 -0.61185306 -0.7519294 0.05176986
-0.015293181 0.20224315 0.21805111 0 0.29155442 -0.45304316 -0.8424654 0.054798573
-0.016257107 0.1962657 0.21933129 0 0.41081849 -0.6071232 -0.68016881 0.080894887
-0.02022922 0.20478463 0.21576314 0 0.30956995 -0.57809448 -0.75496572 0.038437963
-0.018625557 0.2002655 0.21743241 0 0.3851023 -0.37393606 -0.84372276 0.042462774
-0.020509481 0.19517979 0.21755783 0 0.48009592 -0.40344089 -0.77893734 0.041599527
-0.024336278 0.19884476 0.21507293 0 0.48147979 -0.24053459 -0.84280503 0.03728237
-0.024976492 0.19424146 0.21506423 0 0.54773498 -0.22875589 -0.80477148 0.039189819
-0.023983717 0.19146144 0.2167117 0 0.58899289 -0.4807927 -0.64955813 0.056989133
0.039887786 0.17897481 0.21164721 0 -0.74614036 -0.66068214 -0.082301997 0.042575635
0.03330642 0.19564396 0.20974025 0 0.68323702 0.23937695 0.68984485 0.028789656
0.034932792 0.18436074 0.21162124 0 0.75470287 0.53452671 0.38040075 0.06696067
0.037371933 0.18202606 0.21001239 0 0.73986965 0.61450273 0.27382353 0.074720785
0.02930212 0.2045821 0.21071289 0 -0.52933729 -0.54328537 -0.65164638 0.035012957
0.029989064 0.19987658 0.21179661 0 -0.57534331 -0.30511796 -0.75886965 0.027293472
0.029913843 0.19478303 0.21196768 0 -0.61729717 -0.2840012 -0.73368078 0.040870033
0.030474842 0.18994138 0.21221837 0 0.65423769 0.39544094 0.64467013 0.057711463
0.032505333 0.18678743 0.21275339 0 0.70248193 0.5409503 0.46248457 0.073069319
0.025365829 0.20528767 0.21257663 0 -0.38927969 -0.62029153 -0.68095505 0.028362971
0.02598232 0.2005713 0.21362005 0 -0.48449007 -0.32229388 -0.81326258 0.024643727
0.026246905 0.19392228 0.21400391 0 -0.54936695 -0.38449091 -0.74186432 0.052593179
0.027078092 0.19114661 0.21494184 0 -0.59534818 -0.55695355 -0.57910562 0.077208012
0.022213161 0.20703039 0.21290529 0 -0.27124974 -0.7968654 -0.53984177 0.040810611
-0.021523714 0.2071785 0.21332388 0 0.25970432 -0.80878717 -0.52765238 0.045723066
-0.025668979 0.20534682 0.21272022 0 0.38344732 -0.63662088 -0.66909051 0.03579668
-0.030365646 0.20303804 0.21113439 0 0.52784717 -0.45130199 -0.71951646 0.030979944
-0.030170321 0.20010316 0.21247454 0 0.54091281 -0.2243249 -0.8106119 0.030979944
-0.030299425 0.19302893 0.21223517 0 0.50214505 0.11534147 -0.85705698 0.011346475
-0.029794395 0.18962842 0.21176465 0 0.52014071 0.25101665 -0.81636041 0.014569223
-0.032532454 0.19633657 0.21123287 0 0.60779393 0.0025640288 -0.79409063 0.02681003
0.037939072 0.19483575 0.20490497 0 0.79093033 0.26750425 0.55033684 0.04087881
0.038572967 0.19078299 0.20587295 0 0.82129878 0.25359577 0.51103568 0.046043005
0.038846254 0.18575901 0.20613998 0 0.78831261 0.34680775 0.50821996 0.049009942
0.040236175 0.18052295 0.20613617 0 0.79594296 0.51331687 0.32090586 0.062824726
0.032963872 0.2038312 0.20649919 0 -0.63878888 -0.6177898 -0.45856786 0.042101186
0.034243047 0.20004129 0.20786817 0 0.70282501 0.35520554 0.61633271 0.046831697
0.035773575 0.19502667 0.2081861 0 0.75633585 0.2526567 0.60342407 0.036188614
0.035255253 0.19028711 0.20881779 0 0.73308158 0.30293846 0.60894972 0.052756447
0.036576569 0.18490419 0.2083561 0 0.76838523 0.43099293 0.47310591 0.066234507
0.029629827 0.20761567 0.2060338 0 -0.48535261 -0.83036339 -0.27373251 0.047284726
0.024587631 0.20926699 0.20852315 0 -0.26925752 -0.88517427 -0.37942976 0.051026326
0.019957185 0.209681 0.20937254 0 -0.098224849 -0.96637785 -0.23762514 0.056428034
0.014742076 0.21001178 0.20933548 0 -0.031757884 -0.96680218 -0.25354484 0.059166834
0.0095385313 0.2097955 0.2092642 0 -0.01109055 -0.9849835 -0.17229179 0.03254056
0.004401505 0.20961544 0.20919724 0 0.0069509801 -0.99212587 -0.12505184 0.030532986
-0.00079798698 0.20974493 0.20921084 0 -0.0017513462 -0.99391645 -0.11012274 0.037317824
-0.0042276978 0.20966673 0.20922302 0 -0.016518692 -0.99534339 -0.094966963 0.03274281
-0.009383142 0.20985639 0.20929849 0 -0.0073268665 -0.99090642 -0.13435313 0.036948103
-0.014575005 0.20989549 0.20939459 0 0.024777427 -0.98381829 -0.17744745 0.051768061
-0.019769609 0.20961556 0.20932595 0 0.095414281 -0.96812934 -0.23156361 0.052878428
-0.025451362 0.20879444 0.20812637 0 0.2604894 -0.90273136 -0.34237602 0.057190936
-0.030002475 0.20782015 0.20608027 0 0.35504276 -0.88642389 -0.29698035 0.038924638
-0.031681597 0.20538828 0.20854065 0 0.50403941 -0.6970523 -0.5099631 0.053924922
-0.036590755 0.19821665 0.20756613 0 0.68383366 -0.21023779 -0.69869274 0.028693652
0.042306781 0.18546197 0.20119993 0 0.74690998 0.42909172 0.50794268 0.028851638
0.038926363 0.19908068 0.20020539 0 0.60413432 0.53051746 0.59462011 0.06060341
0.038856864 0.19617522 0.20261532 0 0.76452768 0.32810348 0.5548383 0.04955725
0.040900707 0.18918946 0.20192593 0 0.88168275 0.24430872 0.40366909 0.037940029
0.040640354 0.18474835 0.20374125 0 0.79001814 0.38652879 0.47588524 0.058732942
0.032362163 0.20534632 0.20324585 0 -0.54481763 -0.79621291 -0.26309451 0.054609645
0.037189603 0.20042586 0.20181961 0 0.63505095 0.5891363 0.49962857 0.08585465
0.042859793 0.20405972 0.19648843 0 0.34952226 -0.55670333 -0.75360173 0.11383855
0.038860738 0.20356372 0.19568712 0 0.067674033 -0.60838974 -0.79074782 0.10943229
0.040846109 0.19992781 0.19802648 0 0.29028106 0.55144036 0.78208083 0.075023055
0.034008145 0.20433873 0.19563933 0 -0.14868034 -0.80795252 -0.57018149 0.1056059
0.035905361 0.20280287 0.19689234 0 -0.2058748 -0.74516571 -0.6343056 0.10844272
0.029601276 0.20618048 0.19486389 0 -0.19458495 -0.97970927 0.048025299 0.071093544
0.024756849 0.20691267 0.19494355 0 -0.12814543 -0.98150563 0.14221612 0.044384569
0.019618809 0.20741013 0.19488145 0 -0.033822004 -0.98968625 0.13920188 0.0049456167
0.014406681 0.20725954 0.19489911 0 2.4149667e-05 -0.9915005 0.13010292 3.2019618e-09
0.010939062 0.20725965 0.19489984 0 2.4037158e-06 -0.93825048 0.34595662 2.0259026e-08
0.005738616 0.20726061 0.19490248 0 1.1383688e-06 -0.93808562 0.34640345 1.1629228e-08
0.00053822994 0.20726159 0.19490513 0 1.2468928e-06 -0.93673348 0.35004342 1.163076e-08
-0.0046649575 0.20726094 0.19490336 0 1.7806857e-06 -0.93839914 0.34555319 1.6455352e-09
-0.0098692179 0.20725965 0.19489992 0 -0.00031139373 -0.69403458 0.71994162 1.6899712e-10
-0.015073597 0.20725831 0.19489637 0 -0.00010966606 -0.87384844 0.48619837 1.1511535e-09
-0.020277977 0.20725694 0.19489281 0 -4.3746797e-05 -0.91216594 0.409821 0.00010766333
-0.02548641 0.20735511 0.19488329 0 0.037105322 -0.87885147 -0.47565037 0.0059381728
-0.030693471 0.20733649 0.1948895 0 0.090440623 -0.99542576 0.030791175 0.010845579
-0.03999722 0.20447004 0.19657791 0 0.32355785 -0.74378818 -0.58488411 0.060722277
0.03888315 0.20541862 0.19292825 0 0.26972184 -0.85964787 -0.43388441 0.10731828
0.033827305 0.20502463 0.19347937 0 -0.099272631 -0.98695552 -0.12674259 0.069441482
-0.035140336 0.2066938 0.19339201 0 -0.10700685 -0.98877633 0.10426383 0.0095979553
-0.038376629 0.20663273 0.19359301 0 0.10670524 -0.83424592 -0.54096925 0.0026240158
0.035247147 0.20535034 0.18033452 0 0.00033410807 -0.95425177 0.29900408 0.00044645998
0.029964447 0.2053411 0.18030795 0 0.00031025978 -0.95828676 0.28580835 0.0003929029
0.022939622 0.20533922 0.18030441 0 3.0459273e-06 -0.94940203 0.31406328 0.00042784825
0.019429207 0.20533976 0.18030597 0 -1.4057025e-05 -0.93287182 0.36020851 0.00053819385
0.015916765 0.2053391 0.1803042 0 -2.3661691e-05 -0.91622984 0.400653 0.00047788827
0.025191963 0.20456517 0.17820787 0 -0.00089961494 -0.93740475 0.34824052 2.1823587e-12
