# .PCD v0.7 - Point Cloud Data file format
VERSION 0.7
FIELDS x y z rgb normal_x normal_y normal_z curvature
SIZE 4 4 4 4 4 4 4 4
TYPE F F F U F F F F
COUNT 1 1 1 1 1 1 1 1
WIDTH 408
HEIGHT 1
VIEWPOINT 0 0 0 1 0 0 0
POINTS 408
DATA ascii
0.46413216 0.72420114 1.0197089 0 0.95080054 0.30950972 0.013494446 0.0023345738
0.4686918 0.71441674 1.0230039 0 0.84275907 0.53828532 0.0024520452 0.0010826478
0.46704203 0.71723735 1.0226928 0 0.88227099 0.47072545 0.0039327377 0.0013906815
0.46481836 0.72218597 1.0211073 0 0.93557912 0.35292158 0.011749208 0.0025414387
0.46555588 0.72032368 1.0227751 0 0.91779733 0.39702162 0.0046851463 0.0025380114
0.46321452 0.72738349 1.0241389 0 0.97281373 0.23158884 0.00033933014 0.003236986
0.46771705 0.71601975 1.0274651 0 0.86558205 0.50076622 -0.00096013647 0.0011704956
0.46439493 0.72330135 1.0270306 0 0.94539672 0.32592165 0.00039073464 0.0033455226
0.46515015 0.72129941 1.0284591 0 0.9273572 0.37417686 -0.00053023477 0.0020491662
0.46375489 0.72532988 1.0255852 0 0.96082473 0.27715352 0.001326359 0.0036655876
0.46250784 0.73116714 1.0295036 0 0.99029237 0.13899994 -0.00023303648 0.0015677296
0.46918288 0.71371573 1.0307572 0 0.82551891 0.56436914 -0.002457005 0.00048668549
0.46677977 0.71777076 1.0321954 0 0.88803184 0.45977989 -0.0013912524 0.0015970254
0.46436673 0.72341758 1.0337181 0 0.94593561 0.32435435 -0.00027925195 0.0022762455
0.4631722 0.72761482 1.0309553 0 0.97466695 0.22366093 -0.00034309211 0.002180042
0.46916804 0.71375048 1.0374703 0 0.82932723 0.55876291 -0.00061540399 0.00064729428
0.46674943 0.71784455 1.0389456 0 0.88869309 0.45850214 -0.00057003961 0.0017967346
0.46550003 0.72049969 1.0360997 0 0.91862202 0.39513698 -0.00058973796 0.0017061556
0.46340668 0.72665155 1.038313 0 0.96852779 0.24890502 0.00045734935 0.0036182576
0.46248153 0.73136514 1.0362713 0 0.990412 0.13814479 -0.00019622866 0.0024164051
0.46209836 0.73542625 1.0355073 0 0.99872029 0.050357725 -0.0046735117 0.0010670812
0.46913838 0.7137804 1.044269 0 0.83215684 0.55454034 0.00026645281 0.00099912926
0.46694177 0.71746534 1.0428908 0 0.88419896 0.46711031 0.00041856882 0.0014205496
0.46432182 0.72354096 1.0405095 0 0.94660503 0.32239544 0.00029703238 0.0032393259
0.46508205 0.72150254 1.0419635 0 0.92847776 0.37138799 -0.00020461292 0.0025884786
0.46284115 0.72910786 1.0440429 0 0.98154914 0.19120975 0.00032772915 0.0036480646
0.46228784 0.73282629 1.0427177 0 0.99455857 0.10417879 0.00021936442 0.0021331168
0.46205115 0.73722219 1.0423875 0 0.99999946 -0.00012768697 0.0010552496 0.0027027717
0.46214929 0.74023092 1.0422592 0 0.99782473 -0.065905914 -0.0015022 0.0024693883
0.46861854 0.71458042 1.0499704 0 0.84407175 0.53622961 0.00085334614 0.0013745454
0.4707379 0.71153533 1.0477923 0 0.79530472 0.60620952 0.00069536647 0.00068358582
0.46717536 0.71703136 1.0467328 0 0.87835652 0.47800583 0.00052062684 0.0019816668
0.46427536 0.72365546 1.0473791 0 0.94748795 0.31979114 -0.00041403211 0.0046488317
0.4654243 0.7206744 1.0497764 0 0.92042309 0.39092362 -0.00014920448 0.0033784867
0.46336278 0.72677457 1.0451242 0 0.96925014 0.24607733 0.0003237605 0.0042783897
0.46226785 0.73300868 1.0496149 0 0.99502563 0.099619135 7.9395992e-05 0.0035963466
0.462044 0.73749876 1.0493772 0 0.99997449 -0.0071232975 -0.00047148223 0.0030299432
0.46963122 0.71305281 1.0523492 0 0.81934094 0.57330632 0.00055674533 0.00066387764
0.47072423 0.71155316 1.0547249 0 0.79271209 0.60959589 -0.00061725546 0.00092497806
0.46667358 0.71797997 1.0527056 0 0.89068353 0.45462376 0.00037607108 0.0021352374
0.46424726 0.72378308 1.0543447 0 0.94864923 0.31632981 -0.00024371753 0.0043494641
0.46332651 0.72696364 1.0521376 0 0.97037882 0.24158837 0.00017708805 0.0037521906
0.46259728 0.73052955 1.0505415 0 0.98731941 0.15874548 -0.00044871517 0.0037233981
0.46239117 0.74262035 1.0500122 0 0.99170905 -0.12846223 -0.0032655422 0.0014603139
0.46323633 0.74711645 1.051958 0 0.97081095 -0.23975638 -0.0065557845 0.0008224796
0.46908164 0.71384043 1.0581399 0 0.83133894 0.55576557 -0.00042241625 0.0011103428
0.47186342 0.7101388 1.057274 0 0.76671696 0.64198291 -0.0017250727 0.00065702019
0.46678653 0.71773726 1.0577309 0 0.88811201 0.45962703 0.00019682913 0.0017441201
0.46499836 0.72171956 1.055853 0 0.93094754 0.36515275 -0.00043483719 0.0030284207
0.46302983 0.72827184 1.0585709 0 0.9774031 0.21138401 0.00016391584 0.0030605581
0.46223506 0.73333281 1.0568233 0 0.99583375 0.091187038 -0.00013078252 0.0038716136
0.46205282 0.7377795 1.0564598 0 0.99988866 -0.014839848 -0.0015822456 0.0028701399
0.46222672 0.74097633 1.0565473 0 0.99573278 -0.092275962 -0.0011906505 0.0021912579
0.4628655 0.7453354 1.0582857 0 0.97938555 -0.20198204 -0.0026727137 0.0014078488
0.46855932 0.71465594 1.0639942 0 0.84432304 0.53583449 0.0001064196 0.0018815978
0.4707129 0.71157223 1.0617574 0 0.79201841 0.61049551 -0.0014453449 0.001150885
0.46758509 0.71627444 1.0616856 0 0.86812109 0.49635211 -0.00060185796 0.0019453549
0.46420187 0.72390383 1.0614018 0 0.94957614 0.31353632 0.00040031876 0.0047114524
0.46534157 0.72085202 1.0638194 0 0.92261285 0.38572726 -4.4176883e-05 0.0036938775
0.46236405 0.7321828 1.064257 0 0.99288416 0.11908416 -0.00011061948 0.003092838
0.46206045 0.73806417 1.0636392 0 0.99975067 -0.022324761 -0.00037668506 0.0029358673
0.46255854 0.74359351 1.06478 0 0.98724103 -0.15923138 -0.00070732576 0.0010118122
0.47306252 0.70881253 1.0671035 0 0.73422611 0.67890477 -0.00060171151 0.00083474303
0.46959209 0.7131089 1.0664368 0 0.81871367 0.57420194 0.00016893377 0.0014382394
0.4707056 0.71159941 1.0688885 0 0.79124486 0.61149937 -0.00032395043 0.001397585
0.46706259 0.71722907 1.0678556 0 0.88115585 0.47282571 -0.00051123661 0.0025723146
0.46417087 0.72403115 1.0685536 0 0.9507637 0.30991653 0.00032407534 0.0037501385
0.46324992 0.7272858 1.0663351 0 0.97236347 0.233472 0.00036679648 0.0028086808
0.46370497 0.74855548 1.0673566 0 0.9559449 -0.29350173 0.0051078103 0.000619634
0.47400376 0.70782739 1.0727857 0 0.71015543 0.70404482 0.00036880604 0.00096675497
0.46904033 0.71391147 1.0723838 0 0.83208489 0.55464822 -0.00031803761 0.0021576525
0.47097227 0.71125501 1.0731796 0 0.78442317 0.62022591 -0.00029973531 0.0014423019
0.46656194 0.71818578 1.0740292 0 0.89372009 0.44862455 -0.00062836939 0.0029723104
0.46491325 0.72194153 1.0701171 0 0.93302315 0.35981596 -0.00047159707 0.0030594156
0.46570209 0.72001833 1.071996 0 0.91390544 0.40592706 -0.00013487 0.004865454
0.46295184 0.72861153 1.0729387 0 0.97913522 0.20320982 -9.9322519e-05 0.0036768762
0.46233341 0.73239505 1.0714916 0 0.99354446 0.11344357 2.6856604e-05 0.0042037703
0.46204636 0.73680747 1.0709851 0 0.99997371 0.0072203982 0.0006250813 0.0039945273
0.46232021 0.74182582 1.0713531 0 0.99335968 -0.1150499 -0.00027839644 0.0020068991
0.46308595 0.74635249 1.0732894 0 0.97434521 -0.22504954 0.0020257074 0.0016608832
0.47431868 0.70748693 1.0771136 0 0.70564282 0.7085647 0.0020694572 0.00072197989
0.46850789 0.71473765 1.0783974 0 0.84568119 0.53368837 0.00027335717 0.0024377846
0.4712798 0.71086681 1.0773369 0 0.77804041 0.62821388 0.00066849793 0.0017145313
0.46751875 0.71639651 1.0760669 0 0.8699742 0.49309686 -0.00065052079 0.0029864768
0.46447971 0.72309935 1.076598 0 0.9431541 0.33235556 -0.00036879766 0.0054381364
0.46526888 0.72103876 1.0782421 0 0.92441499 0.3813881 -0.00013113451 0.0034844393
0.46379703 0.72522146 1.075007 0 0.95931482 0.28233847 -2.3249817e-05 0.0037483198
0.46231079 0.73263526 1.0788661 0 0.99415207 0.10798799 -0.00053530018 0.0040728855
0.46205413 0.7370894 1.0783648 0 0.99999821 0.0015341992 -0.0010836431 0.0048848302
0.46239337 0.74239373 1.0790991 0 0.99168849 -0.12865855 0.00093703298 0.0024262711
0.47306091 0.70880634 1.0815914 0 0.73664796 0.67627525 0.0012483818 0.0010901033
0.46955028 0.713166 1.0809065 0 0.82051498 0.57162499 0.00024896613 0.0021524585
0.47067848 0.71163774 1.0834277 0 0.79370129 0.60830754 0.00042471342 0.0019065032
0.46699485 0.71735448 1.0823811 0 0.88318688 0.46902126 8.3230298e-05 0.0024736493
0.46444491 0.72322088 1.0839574 0 0.94413847 0.32954893 0.00010318284 0.0041403193
0.46317092 0.72761399 1.0809159 0 0.97418386 0.22575614 8.0829428e-05 0.0038352327
0.46403903 0.74987257 1.0829664 0 0.95792717 -0.28701103 -0.00051415496 0.0010926587
0.4740012 0.70779765 1.08743 0 0.71522605 0.69889301 0.00052665081 0.001323832
0.47631499 0.70558637 1.0889543 0 0.66218776 0.74933356 -0.0025644535 0.00077811355
0.46900243 0.71398759 1.0870167 0 0.83458173 0.55088401 0.00032029371 0.0028518848
0.4709473 0.71128577 1.0878345 0 0.78725076 0.61663294 -4.7575591e-05 0.0025148434
0.46649206 0.71833277 1.0887332 0 0.89514446 0.44577605 -0.00030131033 0.0038534985
0.46562546 0.72019154 1.0866435 0 0.91647965 0.40008125 5.8125457e-05 0.0036053171
0.46342036 0.72660756 1.089012 0 0.96830225 0.24978119 0.00024960452 0.0032205801
0.46245089 0.73154473 1.0867547 0 0.99085289 0.13493475 0.0017798423 0.0030759203
0.46204746 0.73737377 1.0858463 0 0.99998105 -0.0058327555 0.0019729121 0.004877998
0.46245542 0.74280971 1.0867338 0 0.99108124 -0.13321458 0.0034465287 0.0028684584
0.46338621 0.74762219 1.0890371 0 0.97077483 -0.23997152 0.0031465089 0.0011149598
0.47432724 0.70745629 1.0918765 0 0.70685172 0.70736086 -0.0011306055 0.0012571166
0.47571611 0.70619887 1.0947807 0 0.67343348 0.73919809 0.0085754693 0.0012478823
0.46846545 0.71482879 1.0931959 0 0.84746397 0.53084975 0.0018259129 0.0041087512
0.47125071 0.710895 1.0921181 0 0.78006911 0.62569219 -0.0012070176 0.0024060295
0.46745741 0.71651953 1.0908301 0 0.87218535 0.48917496 -0.00078168506 0.0036590104
0.46439579 0.72334087 1.0914176 0 0.94523597 0.3263877 7.370198e-05 0.0047517046
0.46519059 0.72122794 1.0930619 0 0.92625529 0.37689623 -0.0006119333 0.0032711399
0.46225259 0.73313403 1.0939356 0 0.99527222 0.097088262 0.0026500258 0.0034704262
0.46202689 0.73766172 1.0934318 0 0.99993294 -0.011524218 0.0011462538 0.0065357168
0.46221471 0.74099791 1.0935823 0 0.99602908 -0.089028142 -0.0002866906 0.003747076
0.46538356 0.75403214 1.0936584 0 0.93969172 -0.34201613 0.0021050419 0.0002316863
0.47308323 0.70881706 1.0964776 0 0.73712546 0.67568338 0.0099002849 0.0019769468
0.47707924 0.70502675 1.0981342 0 0.63664633 0.77093267 0.018553907 0.0011039777
0.46952692 0.71323717 1.0957749 0 0.82204729 0.56938988 0.0057803532 0.0032180394
0.47071099 0.71171951 1.098368 0 0.79317439 0.60849571 0.024645677 0.0048782248
0.46696091 0.71750414 1.0973074 0 0.88630319 0.46292639 0.012877362 0.0042451425
0.46452689 0.72352755 1.098987 0 0.94601816 0.32231158 0.034130696 0.0076202811
0.46312401 0.72795922 1.0959011 0 0.97494841 0.22227339 0.0083753513 0.0036374128
0.46293858 0.74562699 1.0955994 0 0.97998387 -0.19899373 0.005750129 0.0021182909
0.4646568 0.75117749 1.0990605 0 0.95074934 -0.30856168 0.029417476 0.0052193077
0.47865164 0.70402336 1.101522 0 0.58666176 0.8054322 0.084302507 0.0085132681
0.4741492 0.70788628 1.1024925 0 0.70494461 0.70223242 0.099612787 0.0097545944
0.4764652 0.70563298 1.1040807 0 0.66137338 0.73494899 0.14978397 0.01599752
0.46909425 0.71415353 1.1020685 0 0.83620173 0.54084307 0.090859771 0.011356088
0.4711436 0.71147525 1.1029336 0 0.78555191 0.60876393 0.11097151 0.018314039
0.46660528 0.71857435 1.1038722 0 0.88742107 0.43670392 0.14755857 0.017203804
0.46573761 0.72046 1.1017137 0 0.9151836 0.39482147 0.080962777 0.0083016045
0.46356797 0.72699624 1.1042608 0 0.95882511 0.23968016 0.15234134 0.014578405
0.46262619 0.7320081 1.1019717 0 0.98836851 0.12894996 0.080620036 0.0091041718
0.46247405 0.73795021 1.1011794 0 0.99914557 -0.016377205 0.037946884 0.011132838
0.46283516 0.74379379 1.1025883 0 0.98171264 -0.15743452 0.10702635 0.011262781
0.47811958 0.70332325 1.1084548 0 0.55820739 0.77102399 0.30647427 0.027312061
0.47308409 0.70807564 1.1081222 0 0.69959992 0.64638078 0.3045519 0.022894919
0.47515762 0.70545089 1.1092092 0 0.633892 0.68254966 0.36374018 0.023827661
0.46843863 0.71353495 1.1090013 0 0.78354454 0.51741666 0.3440029 0.02378008
0.47102082 0.71077615 1.1072412 0 0.75531036 0.59764063 0.26894593 0.023525724
0.46641707 0.71770823 1.1076807 0 0.85045081 0.44221631 0.2849178 0.02558288
0.46418303 0.72354376 1.1065941 0 0.92155451 0.30677849 0.23795843 0.030731056
0.46469566 0.72121543 1.108085 0 0.8864637 0.35570911 0.29606262 0.021979166
0.46210313 0.72868139 1.1093625 0 0.91488743 0.17925079 0.36173216 0.023710437
0.46166474 0.73314297 1.1086079 0 0.93841684 0.09441933 0.33235353 0.026771953
0.46157646 0.73794568 1.1083367 0 0.96012115 -0.01129257 0.27935618 0.017116036
0.46180886 0.74322295 1.1088532 0 0.93408668 -0.12556401 0.33423913 0.025987254
0.46382666 0.7489298 1.105304 0 0.94026852 -0.27563834 0.19979656 0.024244271
0.46508101 0.75458264 1.1086057 0 0.87483984 -0.37406304 0.30778581 0.022587845
0.468894 0.76156306 1.109524 0 0.71030748 -0.50429726 0.49106777 0.0039448971
0.47391355 0.703435 1.1136782 0 0.55772299 0.63314664 0.53672194 0.017530361
0.4676781 0.70900643 1.1146705 0 0.64161432 0.50621372 0.57626271 0.015515778
0.47138971 0.70675963 1.1128198 0 0.63397205 0.58624434 0.50437778 0.016391616
0.46766868 0.71184516 1.1122901 0 0.7139408 0.50212336 0.48801708 0.01966819
0.4630045 0.71738386 1.1139746 0 0.75177312 0.35960731 0.55273843 0.016013084
0.46597075 0.71629149 1.1105869 0 0.79879916 0.4406808 0.40953672 0.024686785
0.46190172 0.72261536 1.1127002 0 0.81764519 0.28237042 0.50172031 0.021998324
0.46147239 0.72678334 1.1115142 0 0.86736131 0.21047632 0.45098126 0.019332116
0.45998007 0.732256 1.1122302 0 0.86750209 0.10719106 0.48574701 0.017605426
0.45862943 0.7370618 1.1138216 0 0.83764857 0.014522255 0.54601651 0.017211888
0.45786649 0.74228197 1.1149234 0 0.79700565 -0.075130254 0.59928071 0.010975619
0.45991591 0.74230713 1.1122861 0 0.86598927 -0.093756154 0.49119481 0.017808937
0.4614833 0.74830663 1.1116346 0 0.85848731 -0.21381481 0.46613598 0.019516977
0.46188977 0.75239676 1.1127188 0 0.80775905 -0.28847185 0.51411027 0.020874646
0.46239734 0.75657302 1.1139439 0 0.72614962 -0.33043015 0.6029284 0.0078788586
0.46630946 0.75977045 1.1114036 0 0.71887797 -0.44074228 0.53755063 0.0056940741
0.46741647 0.7650975 1.1141479 0 0.60911685 -0.46314594 0.64379543 0.0026926466
0.47046101 0.7677356 1.1134026 0 0.57650208 -0.51762569 0.63222545 0.0020606758
0.47379136 0.7710377 1.1134413 0 0.49638736 -0.57179564 0.653184 0.0017448197
0.46785235 0.70328689 1.118657 0 0.55184472 0.53483915 0.63985503 0.0031508862
0.47195742 0.7020039 1.116596 0 0.50309229 0.58609188 0.63513345 0.0092177549
0.46291655 0.70847362 1.1190292 0 0.62327242 0.44926584 0.64007169 0.0041638273
0.46695682 0.70700473 1.1166934 0 0.59970564 0.50867772 0.61773789 0.0084320186
0.45955849 0.71342838 1.1189933 0 0.67947763 0.36956567 0.6338228 0.0055489857
0.46303865 0.71248847 1.1166551 0 0.65769207 0.40758261 0.63349628 0.0071926774
0.46503451 0.71002245 1.1162539 0 0.63783354 0.46188146 0.61630666 0.008811783
0.45776734 0.71816391 1.1186177 0 0.70672435 0.29818943 0.64157909 0.0056839278
0.46160504 0.71635133 1.1157976 0 0.70470297 0.35044777 0.61691171 0.0081285108
0.45733187 0.72248375 1.117594 0 0.72325176 0.231047 0.65078735 0.0040616458
0.45739657 0.72769177 1.1162965 0 0.76121658 0.15058428 0.63077229 0.0074723717
0.45311245 0.73217809 1.119656 0 0.76625252 0.06844227 0.63888401 0.0045573004
0.45634183 0.73232138 1.1165643 0 0.74906987 0.078416117 0.65783376 0.0030917036
0.45314395 0.73701352 1.1195202 0 0.76802558 -0.0049893958 0.64039975 0.0042760074
0.45548293 0.73703074 1.1170595 0 0.75320941 0.0055246735 0.65775758 0.0029984398
0.45316163 0.74211556 1.1196526 0 0.76677644 -0.066461228 0.63846439 0.0042838878
0.45544851 0.74220526 1.1172175 0 0.74858689 -0.070913814 0.65923351 0.0040564663
0.45319694 0.74562293 1.1198555 0 0.76653969 -0.11112008 0.63251024 0.0056700846
0.45741561 0.74749327 1.1162832 0 0.75155312 -0.15580985 0.64100796 0.0048453733
0.45738852 0.75224942 1.117599 0 0.71618927 -0.22035402 0.66220617 0.0049430993
0.45772466 0.75621653 1.1184984 0 0.6795516 -0.27156246 0.68151557 0.0036230325
0.4617511 0.75956035 1.11616 0 0.663939 -0.34579584 0.6630311 0.0030924978
0.45967835 0.7615189 1.1191142 0 0.63322353 -0.33945519 0.69555598 0.0032185894
0.46352279 0.76325631 1.1165596 0 0.62327605 -0.39881384 0.67266226 0.0029995011
0.46332964 0.76882684 1.1199991 0 0.56686509 -0.43334007 0.70062852 0.0019653689
0.46692973 0.76826805 1.1167246 0 0.56471342 -0.46705607 0.68040973 0.0018123378
0.46643054 0.77163005 1.1193963 0 0.53560007 -0.47416764 0.69878298 0.0014428293
0.4717685 0.77295458 1.1163884 0 0.49500418 -0.52111191 0.69527924 0.0015912417
0.46964335 0.77501345 1.1192596 0 0.48995906 -0.52628148 0.69495893 0.00044725262
0.46296409 0.70265025 1.1228751 0 0.63512826 0.58967566 0.49889347 0.01303664
0.45838565 0.70665497 1.1239995 0 0.72144812 0.49192554 0.48736218 0.018958423
0.4613632 0.70734048 1.1207623 0 0.6403693 0.47788063 0.60129631 0.0088833133
0.45459646 0.71440089 1.1231349 0 0.76963562 0.35956144 0.52761406 0.016675536
0.45649049 0.71175277 1.122494 0 0.7278052 0.40015432 0.55693454 0.015205819
0.45301947 0.71785134 1.1233191 0 0.80376416 0.31368259 0.50553578 0.015928818
0.4567534 0.71594292 1.1203222 0 0.70688277 0.33453292 0.62322104 0.0067722239
0.45246622 0.7221393 1.1221869 0 0.80053365 0.24093731 0.54872131 0.012770772
0.44896105 0.72888398 1.1249961 0 0.88329285 0.13269249 0.44965142 0.018899553
0.45243296 0.72742629 1.1208518 0 0.78007066 0.14370815 0.6089645 0.0073994165
0.44877231 0.73204249 1.1247363 0 0.8862009 0.080401428 0.45627132 0.01801371
0.45076671 0.73209184 1.1220847 0 0.80978864 0.079237044 0.58134663 0.0093133412
0.44881821 0.73687619 1.1245807 0 0.8871392 0.00668213 0.46145356 0.02308239
0.45082024 0.73690885 1.1219239 0 0.80257863 0.0070865368 0.59650427 0.0061255549
0.44884458 0.74194241 1.1247056 0 0.8874768 -0.065209545 0.45621562 0.020025074
0.45080441 0.7420482 1.1220603 0 0.80540162 -0.06668745 0.58896601 0.0071619418
0.44898689 0.74543768 1.1250209 0 0.89142978 -0.11696719 0.43780324 0.014395992
0.45223501 0.74825305 1.1214168 0 0.78355747 -0.15117876 0.60264641 0.0058966512
0.45219168 0.75302708 1.1227205 0 0.80328405 -0.24011749 0.54504895 0.0090626311
0.45414275 0.7570498 1.1220744 0 0.75918627 -0.30926576 0.57270485 0.010494143
0.45678079 0.75928855 1.1204102 0 0.70131755 -0.33356443 0.62999088 0.0063423188
0.45488629 0.76116407 1.1235553 0 0.76158422 -0.38899648 0.51833504 0.0081318971
0.45752496 0.7635262 1.1220036 0 0.70439512 -0.38574424 0.59584302 0.007295615
0.45710456 0.76664925 1.1246243 0 0.75428671 -0.42740074 0.49837759 0.0096088899
0.46036425 0.76610625 1.1208676 0 0.59468621 -0.38663721 0.70488292 0.0023230524
0.46273291 0.77226752 1.1225851 0 0.55862999 -0.4619171 0.68888688 0.00085535547
0.46760517 0.77707452 1.1223041 0 0.49561107 -0.53849232 0.68146586 0.00036144268
0.45889241 0.70298266 1.1278063 0 0.75446743 0.58245397 0.30253315 0.022126408
0.45619741 0.70808673 1.1260451 0 0.78511035 0.48278812 0.38796562 0.021097362
0.45336443 0.71215951 1.1273018 0 0.84362948 0.42519927 0.32786417 0.01969341
0.45131278 0.7168752 1.126979 0 0.87225151 0.34197539 0.34961432 0.017609863
0.44971004 0.72169864 1.1267048 0 0.89642769 0.2657049 0.35470882 0.018671602
0.44924659 0.72585225 1.1254536 0 0.88686073 0.1871244 0.42244822 0.017622702
0.44731712 0.73333496 1.1292738 0 0.94428658 0.079106912 0.31947604 0.016087737
0.44711885 0.73803371 1.1288252 0 0.94538426 -0.0032810043 0.32594138 0.01828349
0.44717318 0.74185848 1.1294609 0 0.94322228 -0.077718362 0.32294199 0.017239312
0.4492617 0.74894613 1.1253853 0 0.88236326 -0.18219976 0.43386436 0.01919492
0.44967517 0.75332469 1.126821 0 0.89718992 -0.27355927 0.34672123 0.019834828
0.45250127 0.7587899 1.1252878 0 0.8359192 -0.35601178 0.41772565 0.016277973
0.46231496 0.77610463 1.1256596 0 0.54763812 -0.51016027 0.66319603 0.00066567183
0.45862859 0.70227551 1.1332045 0 0.75845075 0.63700134 0.13777421 0.010423351
0.45417866 0.70901334 1.130531 0 0.850088 0.4869459 0.20058428 0.016160019
0.45513359 0.70718235 1.1330255 0 0.83789623 0.53104496 0.12617907 0.0092676273
0.45172513 0.71378881 1.1327788 0 0.90219176 0.41356272 0.12253945 0.0081066741
0.45089054 0.71585125 1.1307273 0 0.90862632 0.37524909 0.18326576 0.015154544
0.44868398 0.7226733 1.1335082 0 0.94083184 0.28090405 0.18954793 0.015048639
0.44770926 0.72763336 1.130754 0 0.95065695 0.18682861 0.24768203 0.015467115
0.44745716 0.74570715 1.1302122 0 0.94639993 -0.14239505 0.28991511 0.017220382
0.44799235 0.75033838 1.1320205 0 0.93899757 -0.25002718 0.23615676 0.018361133
0.45137128 0.76081723 1.1324559 0 0.92754978 -0.33277127 0.17004314 0.012254206
0.4621231 0.69824594 1.1375086 0 0.72682965 0.68658853 0.017743122 0.00043862232
0.45746827 0.70394385 1.1385581 0 0.80844015 0.58767611 0.032577962 0.0024111676
0.45622125 0.70546007 1.1356364 0 0.82082021 0.56715792 0.067720354 0.0061732307
0.45314512 0.71094441 1.1362858 0 0.8781122 0.47132596 0.082285136 0.0055989185
0.44984776 0.7192468 1.1359828 0 0.91518474 0.35993502 0.18133861 0.027614158
0.45075271 0.71723574 1.1380608 0 0.89744657 0.40323153 0.17886858 0.034660902
0.44769129 0.72791076 1.1390687 0 0.87176931 0.21219739 0.44157737 0.076435745
0.44710085 0.7321822 1.1378325 0 0.90129042 0.10463084 0.42039025 0.066997826
0.44711894 0.73679596 1.1372596 0 0.92284751 0.015932301 0.38483581 0.061656289
0.44710702 0.74223214 1.1377542 0 0.89994156 -0.14010067 0.41288859 0.068705276
0.44823325 0.74870712 1.1401222 0 0.83674788 -0.26723257 0.47795364 0.081800193
0.45072877 0.75683844 1.1372851 0 0.87447101 -0.45149329 0.17735352 0.052056246
0.4624953 0.6979149 1.1423885 0 0.71769822 0.69632828 -0.0060125277 0.00099333655
0.45950782 0.70179039 1.1429988 0 0.7801463 0.62559694 0.00043504714 0.010947519
0.45491835 0.70840621 1.1400987 0 0.83788478 0.54023099 0.07809981 0.025308149
0.45631453 0.70696574 1.1428833 0 0.81128913 0.57808447 0.087340303 0.041808192
0.45324773 0.71244442 1.1436752 0 0.79691333 0.52587098 0.29730266 0.071443021
0.45173088 0.71525311 1.1401803 0 0.87244338 0.44111943 0.21037154 0.05296747
0.44349566 0.72320229 1.1453185 0 0.52153099 0.33933774 0.78285074 0.05389582
0.4487789 0.72170132 1.1426421 0 0.7855562 0.39655441 0.47502217 0.079427876
0.43953252 0.72817039 1.1446679 0 0.50353926 0.18169595 0.84465069 0.045317907
0.44325355 0.72744417 1.1444086 0 0.54050446 0.24078381 0.80615014 0.06915395
0.44665521 0.72659677 1.142103 0 0.80263692 0.25714743 0.53819066 0.091121703
0.43931752 0.73292148 1.1441231 0 0.55351162 0.086465232 0.82834089 0.051860977
0.4430421 0.73203063 1.1436597 0 0.57329047 0.10812221 0.81218696 0.073944539
0.4448199 0.73273224 1.1420186 0 0.72874457 0.10056044 0.67736179 0.069008343
0.43778062 0.73711061 1.1451477 0 0.66200721 -0.014513553 0.74935693 0.050836414
0.44305679 0.73682469 1.1433798 0 0.59010088 0.0034809937 0.80732203 0.083123624
0.44507274 0.73789465 1.1416876 0 0.63969582 -0.022622867 0.76829517 0.03885176
0.43949181 0.74134535 1.1443244 0 0.5389961 -0.1074697 0.83542413 0.048118196
0.44318318 0.74188393 1.1437241 0 0.58212864 -0.11775426 0.80452478 0.071820669
0.44472742 0.74155456 1.1423999 0 0.73226446 -0.11482614 0.67127025 0.079773426
0.43956706 0.74500871 1.1446148 0 0.51413399 -0.14947282 0.84458518 0.051146708
0.44348475 0.74718916 1.1445603 0 0.53648764 -0.22785595 0.81256551 0.077185526
0.44496349 0.74541223 1.1428837 0 0.7243945 -0.18624561 0.66375083 0.076553337
0.44335744 0.75112993 1.1450688 0 0.50820589 -0.31664342 0.80091429 0.071411468
0.4492828 0.75468802 1.1436458 0 0.74610484 -0.45827344 0.4830249 0.10548745
0.46318808 0.69793653 1.1476711 0 0.69764417 0.71640438 0.0075751171 0.017418407
0.45777285 0.70431489 1.1470788 0 0.71583843 0.66672558 0.20749056 0.054679587
0.45435399 0.70944554 1.1472613 0 0.67606699 0.60699677 0.41771805 0.073688731
0.45502448 0.7072773 1.1495036 0 -0.58560044 -0.65935135 -0.47151658 0.068688467
0.43818557 0.71436304 1.1499288 0 0.5293569 0.38338396 0.75683421 0.023662731
0.44404075 0.7132259 1.1499252 0 0.35150042 0.4736779 0.80751264 0.041586466
0.44798985 0.71381342 1.1490335 0 0.46990347 0.51600564 0.71619058 0.062449571
0.45083341 0.71302629 1.1479883 0 0.63274342 0.55784339 0.53707224 0.073962219
0.43510926 0.71804422 1.1505141 0 0.82713377 0.22180521 0.51638377 0.042485651
0.4375889 0.71845758 1.1483182 0 0.60098249 0.29995665 0.74084145 0.040437475
0.44255906 0.71797925 1.1476073 0 0.4199422 0.41390419 0.80767065 0.043711491
0.44789895 0.71773428 1.1462566 0 0.63445097 0.48876879 0.598813 0.065499388
0.45009893 0.71544498 1.1463265 0 0.68499863 0.52161515 0.50862026 0.084024094
0.43473598 0.72232234 1.1492803 0 0.85914755 0.16086927 0.48578453 0.05157876
0.43721125 0.72275662 1.1471384 0 0.62933129 0.22705539 0.74322808 0.045320626
0.44040215 0.72240597 1.1465373 0 0.4957549 0.30799064 0.8120153 0.048970401
0.44610608 0.72161651 1.1448308 0 0.63586831 0.40683493 0.6558634 0.059818074
0.43440285 0.72830874 1.1481578 0 0.88119102 0.086641751 0.46475324 0.048112266
0.43787116 0.7265476 1.1459453 0 0.59576309 0.18560132 0.78142083 0.048769679
0.44560048 0.72463512 1.1438068 0 0.67857987 0.31487146 0.66361535 0.063899755
0.43407881 0.73297936 1.1473532 0 0.87344575 0.054773204 0.48383096 0.049906399
0.43696821 0.73185301 1.1458386 0 0.6808666 0.078139514 0.72822726 0.051166303
0.43402562 0.73796642 1.1472954 0 0.89898342 0.00072901754 0.43798208 0.062335081
0.4341158 0.74312788 1.1475099 0 0.89518559 -0.060568541 0.44155887 0.066065729
0.43706799 0.74181306 1.1458921 0 0.68046677 -0.072713256 0.7291624 0.052007481
0.43433782 0.74677283 1.1480932 0 0.89514714 -0.10071111 0.43424517 0.058939684
0.43785655 0.74787039 1.1458502 0 0.59011161 -0.17053786 0.78910404 0.059093468
0.44563666 0.74970132 1.1437111 0 0.68021429 -0.29666534 0.67029709 0.070387699
0.43472412 0.75264657 1.149305 0 0.87488931 -0.15497881 0.45885757 0.051432636
0.43734092 0.7532835 1.1474322 0 0.61194563 -0.24539717 0.75186622 0.051793139
0.44025624 0.75278854 1.1463503 0 0.45307896 -0.291518 0.84245872 0.054807726
0.4462339 0.75375193 1.14507 0 0.60712475 -0.41075718 0.68020445 0.080882177
0.43771487 0.75772381 1.1486382 0 0.57819891 -0.30951676 0.75490755 0.038460266
0.44223386 0.75612062 1.1469687 0 0.37396294 -0.38506046 0.84372991 0.042465519
0.44731966 0.75800455 1.1468432 0 0.40342888 -0.48003477 0.77898121 0.041591018
0.44365451 0.76183087 1.1493279 0 0.24058978 -0.48145464 0.84280366 0.037283625
0.44825786 0.76247156 1.1493367 0 0.22881176 -0.54771447 0.80476958 0.039183062
0.45103756 0.76147813 1.1476883 0 0.48091495 -0.58893621 0.64951903 0.056979962
0.46352541 0.69760835 1.152756 0 0.66070324 0.7461198 0.082319424 0.042574756
0.44685602 0.70418948 1.1546625 0 -0.23934622 -0.68324107 -0.68985146 0.028785001
0.45813945 0.70256329 1.1527818 0 -0.53450608 -0.75471979 -0.38039622 0.066959582
0.4604741 0.7001242 1.1543908 0 -0.61449093 -0.73987794 -0.27382752 0.074719645
0.43791795 0.70819366 1.1536896 0 0.54328984 0.52932781 0.65165043 0.035007175
0.44262344 0.70750666 1.1526059 0 0.30510843 0.57535386 0.75886548 0.027292727
0.44771698 0.70758188 1.1524348 0 0.28397235 0.6173085 0.73368245 0.040864453
0.4525587 0.707021 1.1521842 0 -0.39543167 -0.65425706 -0.64465612 0.057709262
0.45571265 0.70499057 1.1516496 0 -0.54092097 -0.7025072 -0.46248046 0.073066361
0.43721229 0.71212983 1.1518259 0 0.62029874 0.38929495 0.68093973 0.028364519
0.44192865 0.71151334 1.1507823 0 0.322292 0.48450908 0.81325203 0.024639823
0.44857767 0.71124876 1.1503985 0 0.38446477 0.54938877 0.7418617 0.052585468
0.45135343 0.71041763 1.1494607 0 0.55694216 0.59536821 0.57909596 0.077201366
0.4354696 0.71528256 1.1514971 0 0.79686707 0.27126878 0.53982967 0.040807769
0.43532115 0.75901812 1.1510774 0 0.80889946 -0.25962201 0.52752066 0.045752145
0.43715262 0.76316333 1.1516809 0 0.63674623 -0.38337019 0.66901535 0.03581972
0.4394612 0.76786 1.1532664 0 0.45138618 -0.52779448 0.71950227 0.030998131
0.44239613 0.76766527 1.1519264 0 0.22435904 -0.54089606 0.81061363 0.030998131
0.4494701 0.76779342 1.1521653 0 -0.11530132 -0.50211304 0.85708117 0.011349108
0.45287067 0.76728863 1.1526357 0 -0.25096557 -0.52012718 0.81638473 0.014574088
0.44616246 0.77002639 1.1531674 0 -0.0025539098 -0.60777038 0.79410869 0.026820904
0.4476642 0.69955683 1.1594977 0 -0.26746932 -0.79091847 -0.55037093 0.04087818
0.45171717 0.69892293 1.15853 0 -0.25355104 -0.82130027 -0.51105547 0.046041068
0.4567413 0.69864982 1.1582631 0 -0.34678978 -0.78831512 -0.50822842 0.049004972
0.46197721 0.6972599 1.1582668 0 -0.51336104 -0.79590768 -0.32092273 0.062826455
0.4386687 0.70453179 1.1579036 0 0.61779922 0.63877612 0.45857292 0.042103007
0.44245872 0.70325273 1.1565346 0 -0.35518438 -0.70282638 -0.61634338 0.04682795
0.44747335 0.70172232 1.1562166 0 -0.25262371 -0.75633669 -0.60343689 0.036184933
0.45221311 0.70224077 1.1555851 0 -0.30290619 -0.733096 -0.60894835 0.052752942
0.457596 0.70091945 1.1560469 0 -0.43097335 -0.7683987 -0.47310185 0.066233329
0.43488434 0.70786589 1.1583686 0 0.83037716 0.48533162 0.27372786 0.047286768
0.43323308 0.71290803 1.1558793 0 0.885185 0.26926079 0.37940228 0.051023275
0.43281883 0.71753889 1.1550306 0 0.96640968 0.098185264 0.2375121 0.056424383
0.43248823 0.72275335 1.1550666 0 0.96680391 0.031782433 0.25353509 0.059164237
0.43270442 0.72795683 1.1551377 0 0.98498267 0.011078506 0.17229746 0.03253635
0.43288469 0.73309463 1.1552058 0 0.99213332 -0.0070170839 0.12498914 0.030528598
0.43275559 0.73829484 1.1551934 0 0.99392897 0.0016828763 0.11001078 0.037308846
0.43283403 0.74172467 1.1551816 0 0.99535638 0.016467594 0.094839178 0.032735467
0.43264452 0.74688023 1.1551063 0 0.99092835 0.0073227445 0.13419174 0.036940251
0.43260503 0.7520721 1.1550102 0 0.98384804 -0.024724232 0.1772901 0.0517601
0.43288445 0.75726664 1.1550783 0 0.96817034 -0.095317684 0.23143181 0.052878842
0.43370542 0.76294762 1.1562768 0 0.90278846 -0.26041737 0.34228033 0.057189964
0.43467942 0.7674973 1.1583211 0 0.88645053 -0.35498995 0.29696402 0.038923882
0.43711102 0.76917607 1.1558602 0 0.69709843 -0.50398284 0.50995594 0.053931709
0.44428238 0.77408499 1.1568341 0 0.21031785 -0.68377465 0.69872642 0.028696859
0.45703819 0.695189 1.163203 0 -0.42908159 -0.7468403 -0.50805372 0.028850248
0.44341913 0.69856876 1.1641972 0 -0.5304969 -0.60407275 -0.59470093 0.060607996
0.44632471 0.69863868 1.1617874 0 -0.32806942 -0.764503 -0.55489242 0.049559116
0.45331061 0.69659507 1.162477 0 -0.24425478 -0.8816644 -0.40374184 0.037931174
0.45775187 0.69685566 1.1606617 0 -0.38653195 -0.79000813 -0.4758994 0.058732297
0.43715352 0.7051335 1.1611568 0 0.7962172 0.5448041 0.26310953 0.054610636
0.44207427 0.70030618 1.162582 0 -0.58908445 -0.63506103 -0.49967688 0.08585725
0.43843892 0.69463462 1.1679136 0 0.55665046 -0.34961519 0.75359768 0.11384643
0.43893713 0.69863486 1.1687139 0 0.60842276 -0.067681462 0.79072183 0.10943618
0.44257233 0.69664997 1.1663749 0 -0.55141228 -0.29029688 -0.78209478 0.075032331
0.43816072 0.70348734 1.1687632 0 0.80798131 0.14861491 0.57015771 0.1056078
0.43969661 0.70159006 1.1675099 0 0.74516845 0.20581216 0.63432276 0.10844886
0.43631947 0.70789415 1.1695383 0 0.97971213 0.19457065 -0.048024617 0.071093909
0.43558726 0.71273828 1.1694582 0 0.98150456 0.12816155 -0.1422091 0.044384528
0.43508959 0.71787637 1.1695204 0 0.98968911 0.033830371 -0.13917944 0.0049462607
0.43524015 0.72308844 1.1695026 0 0.99152982 -2.1015883e-05 -0.12987944 3.4064451e-09
0.43524003 0.72655606 1.1695019 0 0.93430156 -1.6217682e-06 -0.3564837 2.044853e-08
0.43523905 0.73175645 1.1694993 0 0.93748993 2.1435649e-06 -0.34801233 1.3264184e-08
0.43523806 0.73695689 1.1694967 0 0.93585521 3.5291882e-07 -0.35238475 1.3278327e-08
0.43523881 0.7421602 1.1694987 0 0.93855876 -3.0107515e-06 -0.34511945 1.7506433e-09
0.43524012 0.74736452 1.1695021 0 0.88952577 7.9939062e-05 -0.45688501 1.7036657e-10
0.43524152 0.75256896 1.1695058 0 0.92038172 3.5237059e-05 -0.39102113 9.4395236e-10
0.43524292 0.75777346 1.1695095 0 0.91220111 4.7246842e-05 -0.4097428 0.00010756779
0.43514454 0.76298237 1.1695197 0 0.87877059 -0.037118252 0.47579876 0.0059387214
0.43516335 0.76818854 1.1695124 0 0.9954285 -0.090450026 -0.030673988 0.010844372
0.43802997 0.77749294 1.167825 0 0.7437461 -0.32360944 0.58490914 0.060713917
0.43708074 0.69861203 1.1714736 0 0.85961688 -0.26979899 0.43389785 0.107323
0.43747517 0.70366806 1.1709228 0 0.98695934 0.099221572 0.12675293 0.069441386
0.43580592 0.77263534 1.1710098 0 0.98879814 0.10690068 -0.1041654 0.0095991353
0.43586683 0.77587217 1.1708094 0 0.83415067 -0.10668442 0.54112023 0.0026245906
0.43714947 0.7022481 1.1840674 0 0.9542464 -0.0003169289 -0.29902115 0.00044656283
0.43715867 0.7075308 1.184094 0 0.95828605 -0.00030416276 -0.28581077 0.00039295576
0.43716049 0.71455556 1.1840974 0 0.9492563 -4.5618858e-06 -0.31450346 0.00042785908
0.43716004 0.7180661 1.1840961 0 0.93084824 1.4024459e-05 -0.36540607 0.00053825683
0.43716067 0.72157848 1.1840978 0 0.91142255 2.5222789e-05 -0.41147161 0.00047793551
0.43793464 0.71230334 1.1861942 0 0.93784946 0.00013312131 -0.34704223 1.6801396e-12
