# .PCD v0.7 - Point Cloud Data file format
VERSION 0.7
FIELDS x y z rgb normal_x normal_y normal_z curvature
SIZE 4 4 4 4 4 4 4 4
TYPE F F F U F F F F
COUNT 1 1 1 1 1 1 1 1
WIDTH 656
HEIGHT 1
VIEWPOINT 0 0 0 1 0 0 0
POINTS 656
DATA ascii
0.012835867 0.0098712007 0.35000002 1646618 0 0 1 0
0.013730954 0.0098712007 0.35000002 1646618 -0 0 1 0
0.014626044 0.0098712007 0.35000002 1712411 -0 0 1 0
0.015521132 0.0098712007 0.35000002 1646618 0 0 1 0
0.01641622 0.0098712007 0.35000002 1646618 0 0 1 0
0.017311309 0.0098712007 0.35000002 1712411 0 0 1 0
0.018206399 0.0098712007 0.35000002 1712411 -0 0 1 0
0.019549031 0.0098712007 0.35000002 1712411 -0 0 1 0
0.020891665 0.0098712007 0.35000002 1712411 0 0 1 0
0.021786751 0.0098712007 0.35000002 1778204 0 0 1 0
0.02268184 0.0098712007 0.35000002 1712411 -0 0 1 0
0.02357693 0.0098712007 0.35000002 1778204 -0 0 1 0
0.024472019 0.0098712007 0.35000002 1778204 0 0 1 0
0.025367107 0.0098712007 0.35000002 1778204 0 0 1 0
0.026262194 0.0098712007 0.35000002 1778204 0 0 1 0
0.027157282 0.0098712007 0.35000002 1778204 -0 0 1 0
0.028499916 0.0098712007 0.35000002 1778204 -0 0 1 0
0.029842554 0.0098712044 0.34999573 1712411 -0.00050788524 -0.00060335238 0.9999997 3.6334521e-05
0.030737713 0.0098712277 0.34998107 1778204 -0.0027818293 -0.001087151 0.99999553 0.00014997988
0.031632975 0.009871278 0.34996623 1778204 -0.0054044221 -0.0017931373 0.99998379 0.00026462029
0.032528393 0.009871373 0.34994972 1778204 -0.0090247244 -0.0027733331 0.99995542 0.0003883132
0.033424031 0.0098714996 0.34993282 1778204 -0.013899446 -0.0036995241 0.99989653 0.00051638589
0.034319714 0.0098716412 0.34992269 1778204 -0.019356638 -0.0048063262 0.9998011 0.0006205407
0.035215259 0.0098717567 0.34992069 1778204 -0.024801426 -0.0059541762 0.99967468 0.00069578749
0.036110498 0.0098717846 0.34992829 1778204 -0.029835589 -0.0070020207 0.99953032 0.00073971704
0.03745253 0.0098715983 0.34995583 1778204 -0.037413627 -0.0080925217 0.9992671 0.00076986192
0.038793091 0.0098711252 0.35000762 1843997 -0.043704923 -0.0089108534 0.99900472 0.00075126498
0.039685879 0.009870626 0.35005489 1843997 -0.047453757 -0.0093926014 0.99882925 0.00073331507
0.040578201 0.0098700533 0.35010588 1778204 -0.051538259 -0.0097055221 0.99862385 0.00072392239
0.041469794 0.0098694237 0.35016719 1778204 -0.054976273 -0.0095942095 0.99844158 0.00070762879
0.042360839 0.0098686824 0.35023856 1843997 -0.057193797 -0.0095649119 0.9983173 0.00069302035
0.043251634 0.0098678935 0.35031638 1778204 -0.058393613 -0.0093562054 0.99824977 0.00068081357
0.044142395 0.0098671727 0.35039717 1843997 -0.058642577 -0.0089807734 0.99823862 0.00067623024
-0.030128377 0.010766284 0.35000247 1713441 0.0049201939 -0.0035366595 0.99998164 0.00010358005
-0.029233295 0.010766289 0.34999934 1383706 0.0040653567 -0.0030199448 0.99998719 9.425496e-05
-0.028338211 0.010766293 0.34999743 1514779 0.0034879579 -0.0025398331 0.9999907 8.538051e-05
-0.027443126 0.010766295 0.34999585 1448986 0.0029112077 -0.0021473959 0.99999344 7.783113e-05
-0.026548039 0.010766296 0.34999472 1514779 0.002397357 -0.0018092087 0.99999547 7.0886694e-05
-0.025652951 0.010766297 0.34999394 1646365 0.0019617339 -0.0015107165 0.99999696 6.4943328e-05
-0.024757855 0.010766292 0.34999576 1777951 0.0010795996 -0.00086976157 0.99999905 4.027988e-05
-0.023862764 0.010766289 0.34999773 1777951 0.00053393334 -0.00039087192 0.99999976 1.8909825e-05
-0.022520131 0.010766288 0.35000002 1646365 -0 0 1 0
-0.021177499 0.010766288 0.35000002 1777951 -0 0 1 0
-0.02028241 0.010766288 0.35000002 1777951 -0 0 1 0
-0.01938732 0.010766288 0.35000002 1777951 -0 0 1 0
-0.018492233 0.010766288 0.35000002 1712158 -0 0 1 0
-0.017597144 0.010766288 0.35000002 1777951 -0 0 1 0
-0.016702054 0.010766288 0.35000002 1712158 0 0 1 0
-0.015806967 0.010766288 0.35000002 1646365 0 0 1 0
-0.014464334 0.010766288 0.35000002 1514779 -0 0 1 0
-0.013121702 0.010766288 0.35000002 1515032 0 0 1 0
-0.012226612 0.010766288 0.35000002 1515032 -0 0 1 0
-0.011331524 0.010766288 0.35000002 1515032 -0 0 1 0
-0.010436435 0.010766288 0.35000002 1646618 -0 0 1 0
-0.0095413467 0.010766288 0.35000002 1712411 0 0 1 0
-0.0086462582 0.010766288 0.35000002 1712411 0 0 1 0
-0.0077511696 0.010766288 0.35000002 1712411 0 0 1 0
-0.0068560811 0.010766288 0.35000002 1646618 -0 0 1 0
-0.0055134483 0.010766288 0.35000002 1449239 0 0 1 0
-0.0041708155 0.010766288 0.35000002 1383446 -0 0 1 0
-0.0032757269 0.010766288 0.35000002 1383446 -0 0 1 0
-0.0023806382 0.010766288 0.35000002 1383446 -0 0 1 0
-0.0014855497 0.010766288 0.35000002 1383446 0 0 1 0
-0.00059046119 0.010766288 0.35000002 1449239 0 0 1 0
0.00030462732 0.010766288 0.35000002 1515032 0 0 1 0
0.0011997159 0.010766288 0.35000002 1646618 0 0 1 0
0.0025423486 0.010766288 0.35000002 1646618 -0 0 1 0
0.0038849816 0.010766288 0.35000002 1515032 0 0 1 0
0.0047800699 0.010766288 0.35000002 1515032 -0 0 1 0
0.0056751585 0.010766288 0.35000002 1449239 -0 0 1 0
0.006570247 0.010766288 0.35000002 1383446 -0 0 1 0
0.007465336 0.010766288 0.35000002 1383446 0 0 1 0
0.0083604241 0.010766288 0.35000002 1383446 0 0 1 0
0.0092555126 0.010766288 0.35000002 1383446 0 0 1 0
0.010150601 0.010766288 0.35000002 1383446 -0 0 1 0
0.011493234 0.010766288 0.35000002 1449239 0 0 1 0
0.012835867 0.010766288 0.35000002 1515032 -0 0 1 0
0.013730954 0.010766288 0.35000002 1646618 -0 0 1 0
0.014626044 0.010766288 0.35000002 1712411 -0 0 1 0
0.015521132 0.010766288 0.35000002 1646618 -0 0 1 0
0.01641622 0.010766288 0.35000002 1646618 0 0 1 0
0.017311309 0.010766288 0.35000002 1712411 0 0 1 0
0.018206399 0.010766288 0.35000002 1712411 0 0 1 0
0.019549031 0.010766288 0.35000002 1712411 -0 0 1 0
0.020891665 0.010766288 0.35000002 1712411 0 0 1 0
0.021786751 0.010766288 0.35000002 1778204 -0 0 1 0
0.02268184 0.010766288 0.35000002 1778204 -0 0 1 0
0.02357693 0.010766288 0.35000002 1778204 -0 0 1 0
0.024472019 0.010766288 0.35000002 1778204 -0 0 1 0
0.025367107 0.010766288 0.35000002 1778204 0 0 1 0
0.026262194 0.010766288 0.35000002 1778204 0 0 1 0
0.027157282 0.010766288 0.35000002 1778204 0 0 1 0
0.028499916 0.010766288 0.34999859 1778204 -0.00019579606 -0.00018978996 0.99999994 1.2404326e-05
0.029842561 0.010766301 0.34999177 1712411 -0.0010797859 -0.001194073 0.99999869 7.2296054e-05
0.030737756 0.010766347 0.34997624 1778204 -0.0035345489 -0.0019316534 0.99999189 0.00019369704
0.031633057 0.010766421 0.34996122 1778204 -0.0063334052 -0.0027763841 0.9999761 0.00031275547
0.032528497 0.010766554 0.34994563 1778204 -0.0099844197 -0.0040565287 0.99994195 0.00043027441
0.033424251 0.01076674 0.34992698 1778204 -0.015258013 -0.0052450965 0.99986982 0.0005632994
0.034319844 0.010766877 0.34992054 1778204 -0.020502919 -0.0064650089 0.99976891 0.00064903003
0.035215329 0.010766971 0.34992051 1778204 -0.025789788 -0.0076086619 0.99963844 0.00071578805
0.036110573 0.010766969 0.34992829 1843997 -0.030926298 -0.0086190822 0.99948448 0.00075667619
0.037452403 0.010766719 0.34995985 1778204 -0.038198926 -0.009824058 0.99922186 0.00077401043
0.038792845 0.010766137 0.35001293 1843997 -0.044219825 -0.010829106 0.99896312 0.00075225398
0.039685525 0.010765537 0.35006166 1843997 -0.04785385 -0.011299207 0.99879044 0.00073232478
0.040577795 0.010764868 0.35011339 1843997 -0.051768314 -0.01166263 0.99859101 0.00072127412
0.041469369 0.010764122 0.35017529 1843997 -0.055019647 -0.011538187 0.99841863 0.00070501899
0.042360384 0.01076328 0.35024792 1843997 -0.05697478 -0.011323373 0.9983114 0.00069010549
0.043251354 0.010762398 0.35032395 1843997 -0.057984792 -0.011042991 0.99825639 0.00068280206
0.044142134 0.010761496 0.35040188 1843997 -0.05848182 -0.010800668 0.99823004 0.00068594987
-0.030128362 0.011661358 0.35000554 1647648 0.0086244605 -0.0061171348 0.99994409 0.00017058665
-0.029233301 0.011661383 0.34999824 1449499 0.007459179 -0.0058577266 0.999955 0.00018135905
-0.028338227 0.011661396 0.34999415 1514779 0.0063348361 -0.005058337 0.99996716 0.00016703364
-0.027443148 0.011661405 0.3499912 1448986 0.0053644311 -0.0043565398 0.9999761 0.00015277862
-0.026548054 0.011661399 0.34999096 1514779 0.0037542288 -0.0032106952 0.99998778 0.00011903563
-0.025652956 0.011661392 0.34999195 1646365 0.0026672366 -0.0022692478 0.99999386 8.8864785e-05
-0.02475786 0.011661385 0.34999341 1777951 0.001936038 -0.0015193237 0.99999696 6.2546598e-05
-0.023862772 0.011661385 0.34999305 1777951 0.0015909234 -0.0012802662 0.99999791 5.743673e-05
-0.022520134 0.011661381 0.34999532 1712158 0.00079226738 -0.00068046775 0.99999946 3.455019e-05
-0.021177499 0.011661377 0.35000002 1777951 -0 0 1 0
-0.02028241 0.011661377 0.35000002 1777951 -0 0 1 0
-0.01938732 0.011661377 0.35000002 1712158 -0 0 1 0
-0.018492233 0.011661377 0.35000002 1777951 -0 0 1 0
-0.017597144 0.011661377 0.35000002 1777951 0 0 1 0
-0.016702054 0.011661377 0.35000002 1777951 0 0 1 0
-0.015806967 0.011661377 0.35000002 1646365 0 0 1 0
-0.014464334 0.011661377 0.35000002 1514779 -0 0 1 0
-0.013121702 0.011661377 0.35000002 1514779 -0 0 1 0
-0.012226612 0.011661377 0.35000002 1515032 -0 0 1 0
-0.011331524 0.011661377 0.35000002 1515032 -0 0 1 0
-0.010436435 0.011661377 0.35000002 1646618 0 0 1 0
-0.0095413467 0.011661377 0.35000002 1712411 -0 0 1 0
-0.0086462582 0.011661377 0.35000002 1712411 0 0 1 0
-0.0077511696 0.011661377 0.35000002 1712411 0 0 1 0
-0.0068560811 0.011661377 0.35000002 1646618 0 0 1 0
-0.0055134483 0.011661377 0.35000002 1449239 0 0 1 0
-0.0041708155 0.011661377 0.35000002 1383446 -0 0 1 0
-0.0032757269 0.011661377 0.35000002 1383446 -0 0 1 0
-0.0023806382 0.011661377 0.35000002 1317653 -0 0 1 0
-0.0014855497 0.011661377 0.35000002 1383446 0 0 1 0
-0.00059046119 0.011661377 0.35000002 1449239 0 0 1 0
0.00030462732 0.011661377 0.35000002 1515032 0 0 1 0
0.0011997159 0.011661377 0.35000002 1646618 0 0 1 0
0.0025423486 0.011661377 0.35000002 1646618 -0 0 1 0
0.0038849816 0.011661377 0.35000002 1515032 -0 0 1 0
0.0047800699 0.011661377 0.35000002 1515032 -0 0 1 0
0.0056751585 0.011661377 0.35000002 1449239 -0 0 1 0
0.006570247 0.011661377 0.35000002 1383446 0 0 1 0
0.007465336 0.011661377 0.35000002 1383446 -0 0 1 0
0.0083604241 0.011661377 0.35000002 1383446 0 0 1 0
0.0092555126 0.011661377 0.35000002 1383446 0 0 1 0
0.010150601 0.011661377 0.35000002 1383446 0 0 1 0
0.011493234 0.011661377 0.35000002 1449239 0 0 1 0
0.012835867 0.011661377 0.35000002 1646618 -0 0 1 0
0.013730954 0.011661377 0.35000002 1646618 -0 0 1 0
0.014626044 0.011661377 0.35000002 1646618 -0 0 1 0
0.015521132 0.011661377 0.35000002 1646618 0 0 1 0
0.01641622 0.011661377 0.35000002 1712411 0 0 1 0
0.017311309 0.011661377 0.35000002 1712411 0 0 1 0
0.018206399 0.011661377 0.35000002 1712411 0 0 1 0
0.019549031 0.011661377 0.35000002 1712411 -0 0 1 0
0.020891665 0.011661377 0.35000002 1778204 -0 0 1 0
0.021786751 0.011661377 0.35000002 1778204 -0 0 1 0
0.02268184 0.011661377 0.35000002 1778204 -0 0 1 0
0.02357693 0.011661377 0.35000002 1778204 -0 0 1 0
0.024472019 0.011661377 0.35000002 1778204 0 0 1 0
0.025367107 0.011661377 0.35000002 1778204 0 0 1 0
0.026262194 0.011661377 0.35000002 1778204 0 0 1 0
0.027157282 0.011661377 0.34999838 1778204 -0.00021329055 -0.00016359011 0.99999994 1.2638388e-05
0.02849992 0.01166138 0.34999576 1778204 -0.00062422099 -0.00057235383 0.99999964 3.7471455e-05
0.029842583 0.011661411 0.34998673 1712411 -0.0018767865 -0.0019764898 0.9999963 0.00011905712
0.030737814 0.011661484 0.34997132 1778204 -0.0045215678 -0.0029763195 0.99998534 0.00024490256
0.031633168 0.011661602 0.3499555 1778204 -0.0075231483 -0.0041234517 0.99996322 0.00036791875
0.032528657 0.011661779 0.34994042 1778204 -0.011344198 -0.0056408322 0.99991971 0.00048214421
0.033424411 0.011661994 0.34992406 1843997 -0.016492294 -0.0069751544 0.99983966 0.00060288759
0.034319993 0.011662131 0.3499189 1778204 -0.021781674 -0.0082232887 0.99972892 0.00068065192
0.035215359 0.011662186 0.34992236 1778204 -0.026839186 -0.0094129359 0.99959546 0.00072988163
0.036110457 0.011662119 0.34993333 1843997 -0.031815883 -0.010339445 0.99944025 0.00076276378
0.03745212 0.011661776 0.34996739 1778204 -0.038843371 -0.011669444 0.99917716 0.00077471929
0.038792346 0.011661069 0.35002357 1843997 -0.044697441 -0.012460548 0.99892288 0.00074810628
0.039684933 0.011660391 0.35007378 1843997 -0.048186146 -0.012977652 0.99875408 0.00072654604
0.040577058 0.011659624 0.35012782 1843997 -0.051788352 -0.013292969 0.99856961 0.00071523967
0.04146862 0.011658836 0.3501896 1778204 -0.054981463 -0.013120414 0.99840117 0.00070094684
0.042359665 0.011657946 0.35026127 1843997 -0.056875568 -0.012935841 0.99829745 0.00068759947
0.043250781 0.011656964 0.35033661 1778204 -0.057555597 -0.012688472 0.99826169 0.00068047462
0.044141624 0.011655975 0.35041192 1843997 -0.058248486 -0.012416167 0.99822491 0.00069269957
-0.030128345 0.012556433 0.35000819 1647648 0.010559632 -0.0080203433 0.99991208 0.00021154719
-0.029233284 0.012556458 0.35000223 1514779 0.00899655 -0.0068182824 0.99993628 0.00019139843
-0.028338214 0.012556475 0.34999755 1514779 0.0077243675 -0.0058141835 0.99995327 0.00017470107
-0.027443141 0.012556486 0.3499938 1448986 0.0064522242 -0.0049610091 0.99996686 0.00015879353
-0.02654806 0.012556493 0.34999096 1646365 0.005370263 -0.0042256657 0.99997663 0.00014502955
-0.025652975 0.012556497 0.34998885 1712158 0.0044088257 -0.0035856366 0.99998385 0.00013327035
-0.024757884 0.012556499 0.34998757 1843744 0.0036642558 -0.0030338457 0.99998868 0.00012248833
-0.023862785 0.012556489 0.34998909 1777951 0.0025757714 -0.0022010475 0.99999428 9.5696014e-05
-0.022520144 0.012556479 0.34999105 1712158 0.0016434533 -0.0014048198 0.99999768 6.8415058e-05
-0.021177502 0.012556469 0.34999537 1777951 0.00070053933 -0.00058689195 0.99999958 3.195681e-05
-0.02028241 0.012556467 0.34999767 1843744 0.00031718839 -0.0002484241 0.99999994 1.5237352e-05
-0.01938732 0.012556466 0.35000002 1712158 -0 0 1 0
-0.018492233 0.012556466 0.35000002 1777951 -0 0 1 0
-0.017597144 0.012556466 0.35000002 1777951 -0 0 1 0
-0.016702054 0.012556466 0.35000002 1777951 -0 0 1 0
-0.015806967 0.012556466 0.35000002 1646365 0 0 1 0
-0.014464334 0.012556466 0.35000002 1514779 -0 0 1 0
-0.013121702 0.012556466 0.35000002 1646365 -0 0 1 0
-0.012226612 0.012556466 0.35000002 1712411 -0 0 1 0
-0.011331524 0.012556466 0.35000002 1646618 0 0 1 0
-0.010436435 0.012556466 0.35000002 1712411 0 0 1 0
-0.0095413467 0.012556466 0.35000002 1778204 -0 0 1 0
-0.0086462582 0.012556466 0.35000002 1712411 -0 0 1 0
-0.0077511696 0.012556466 0.35000002 1712411 0 0 1 0
-0.0068560811 0.012556466 0.35000002 1515032 0 0 1 0
-0.0055134483 0.012556466 0.35000002 1449239 0 0 1 0
-0.0041708155 0.012556466 0.35000002 1449239 -0 0 1 0
-0.0032757269 0.012556466 0.35000002 1449239 0 0 1 0
-0.0023806382 0.012556466 0.35000002 1383446 -0 0 1 0
-0.0014855497 0.012556466 0.35000002 1383446 0 0 1 0
-0.00059046119 0.012556466 0.35000002 1449239 0 0 1 0
0.00030462732 0.012556466 0.35000002 1515032 -0 0 1 0
0.0011997159 0.012556466 0.35000002 1646618 0 0 1 0
0.0025423486 0.012556466 0.35000002 1646618 -0 0 1 0
0.0038849816 0.012556466 0.35000002 1515032 -0 0 1 0
0.0047800699 0.012556466 0.35000002 1515032 -0 0 1 0
0.0056751585 0.012556466 0.35000002 1383446 0 0 1 0
0.006570247 0.012556466 0.35000002 1383446 0 0 1 0
0.007465336 0.012556466 0.35000002 1383446 -0 0 1 0
0.0083604241 0.012556466 0.35000002 1383446 -0 0 1 0
0.0092555126 0.012556466 0.35000002 1449239 0 0 1 0
0.010150601 0.012556466 0.35000002 1383446 0 0 1 0
0.011493234 0.012556466 0.35000002 1515032 0 0 1 0
0.012835867 0.012556466 0.35000002 1646618 -0 0 1 0
0.013730954 0.012556466 0.35000002 1646618 0 0 1 0
0.014626044 0.012556466 0.35000002 1646618 -0 0 1 0
0.015521132 0.012556466 0.35000002 1646618 0 0 1 0
0.01641622 0.012556466 0.35000002 1712411 0 0 1 0
0.017311309 0.012556466 0.35000002 1712411 -0 0 1 0
0.018206399 0.012556466 0.35000002 1712411 0 0 1 0
0.019549031 0.012556466 0.35000002 1712411 -0 0 1 0
0.020891665 0.012556466 0.35000002 1778204 -0 0 1 0
0.021786751 0.012556466 0.35000002 1712411 -0 0 1 0
0.02268184 0.012556466 0.35000002 1843997 -0 0 1 0
0.02357693 0.012556466 0.35000002 1778204 -0 0 1 0
0.024472019 0.012556466 0.35000002 1778204 -0 0 1 0
0.025367107 0.012556466 0.35000002 1778204 0 0 1 0
0.026262194 0.012556466 0.35000002 1778204 -0 0 1 0
0.027157284 0.012556468 0.34999689 1778204 -0.00044868921 -0.0003321059 0.99999982 2.5390098e-05
0.028499929 0.012556477 0.34999201 1778204 -0.0013046411 -0.0010971577 0.99999857 7.3867115e-05
0.029842611 0.012556527 0.34998277 1778204 -0.0027995512 -0.0028042002 0.99999213 0.0001641702
0.030737879 0.012556626 0.34996754 1778204 -0.0056491778 -0.0039990847 0.99997604 0.00029469983
0.031633273 0.012556776 0.34995204 1778204 -0.0088828858 -0.0053295442 0.99994636 0.00041824605
0.032528758 0.012556951 0.34993964 1778204 -0.012773873 -0.0068758354 0.9998948 0.000521462
0.033424441 0.01255713 0.34992716 1778204 -0.017714545 -0.0080493465 0.9998107 0.00062781177
0.034319945 0.012557251 0.34992433 1778204 -0.022911092 -0.0094246762 0.9996931 0.00069824804
0.035215233 0.012557275 0.34992906 1843997 -0.028023794 -0.010649476 0.99955052 0.00074558816
0.036110211 0.012557176 0.34994173 1778204 -0.032921027 -0.011759085 0.99938875 0.00077352609
0.037451595 0.012556726 0.34998062 1778204 -0.039563641 -0.013176973 0.99913019 0.00077328779
0.038791649 0.012555934 0.35003853 1843997 -0.045333665 -0.013967223 0.99887425 0.00074790773
0.039684176 0.012555205 0.35008886 1843997 -0.04866831 -0.014505703 0.99870968 0.00072480802
0.040576227 0.012554378 0.35014379 1843997 -0.052060515 -0.014895391 0.99853283 0.00071266136
0.041467711 0.012553531 0.35020715 1843997 -0.054912686 -0.014688541 0.9983831 0.00069827412
0.042358804 0.012552558 0.35027784 1843997 -0.056633309 -0.014699485 0.99828684 0.00068885519
0.043249991 0.012551509 0.35035139 1843997 -0.057367567 -0.014482886 0.99824804 0.00068529125
0.044141028 0.012550443 0.35042489 1843997 -0.057775885 -0.014227831 0.99822819 0.00069892727
-0.030128276 0.013451458 0.35001594 1647648 0.016193114 -0.011855381 0.9997986 0.00030531391
-0.029233254 0.01345152 0.35000631 1514779 0.013732432 -0.010118058 0.99985451 0.00027684003
-0.028338211 0.013451559 0.34999907 1514779 0.011820776 -0.0086408425 0.99989277 0.00025332646
-0.027443154 0.013451587 0.34999314 1514779 0.0098789036 -0.0073873992 0.99992388 0.00023074952
-0.026548084 0.013451604 0.34998861 1646365 0.0082349479 -0.0063039484 0.99994624 0.00021112127
-0.025653007 0.013451615 0.34998524 1712158 0.006762139 -0.0053624348 0.99996275 0.00019303593
-0.024757903 0.013451606 0.34998518 1843744 0.0051333238 -0.0041670259 0.99997813 0.00016094341
-0.023862803 0.013451594 0.34998605 1777951 0.0039161304 -0.0031798235 0.9999873 0.00013208343
-0.022520158 0.013451582 0.34998739 1712158 0.0027212966 -0.0021701609 0.99999392 0.00010076966
-0.021177517 0.013451573 0.34998903 1712158 0.0017428311 -0.0014757484 0.99999738 7.7488636e-05
-0.020282421 0.013451566 0.34999129 1843744 0.0011983626 -0.0010242062 0.99999875 5.8973252e-05
-0.019387323 0.013451558 0.34999567 1777951 0.00054285175 -0.00045387284 0.99999976 2.8821129e-05
-0.018492233 0.013451555 0.35000002 1777951 -0 0 1 0
-0.017597144 0.013451555 0.35000002 1777951 0 0 1 0
-0.016702054 0.013451555 0.35000002 1777951 0 0 1 0
-0.015806967 0.013451555 0.35000002 1646365 -0 0 1 0
-0.014464334 0.013451555 0.35000002 1514779 0 0 1 0
-0.013121702 0.013451555 0.35000002 1646365 0 0 1 0
-0.012226612 0.013451555 0.35000002 1712158 0 0 1 0
-0.011331524 0.013451555 0.35000002 1646365 -0 0 1 0
-0.010436435 0.013451555 0.35000002 1712411 -0 0 1 0
-0.0095413467 0.013451555 0.35000002 1778204 0 0 1 0
-0.0086462582 0.013451555 0.35000002 1712411 0 0 1 0
-0.0077511696 0.013451555 0.35000002 1712411 -0 0 1 0
-0.0068560811 0.013451555 0.35000002 1515032 -0 0 1 0
-0.0055134483 0.013451555 0.35000002 1449239 -0 0 1 0
-0.0041708155 0.013451555 0.35000002 1449239 0 0 1 0
-0.0032757269 0.013451555 0.35000002 1449239 -0 0 1 0
-0.0023806382 0.013451555 0.35000002 1383446 0 0 1 0
-0.0014855497 0.013451555 0.35000002 1383446 -0 0 1 0
-0.00059046119 0.013451555 0.35000002 1383446 -0 0 1 0
0.00030462732 0.013451555 0.35000002 1515032 0 0 1 0
0.0011997159 0.013451555 0.35000002 1646618 -0 0 1 0
0.0025423486 0.013451555 0.35000002 1646618 0 0 1 0
0.0038849816 0.013451555 0.35000002 1515032 0 0 1 0
0.0047800699 0.013451555 0.35000002 1515032 0 0 1 0
0.0056751585 0.013451555 0.35000002 1383446 -0 0 1 0
0.006570247 0.013451555 0.35000002 1383446 -0 0 1 0
0.007465336 0.013451555 0.35000002 1383446 0 0 1 0
0.0083604241 0.013451555 0.35000002 1383446 0 0 1 0
0.0092555126 0.013451555 0.35000002 1449239 -0 0 1 0
0.010150601 0.013451555 0.35000002 1383446 -0 0 1 0
0.011493234 0.013451555 0.35000002 1515032 -0 0 1 0
0.012835867 0.013451555 0.35000002 1646618 0 0 1 0
0.013730954 0.013451555 0.35000002 1646618 -0 0 1 0
0.014626044 0.013451555 0.35000002 1646618 0 0 1 0
0.015521132 0.013451555 0.35000002 1646618 -0 0 1 0
0.01641622 0.013451555 0.35000002 1712411 -0 0 1 0
0.017311309 0.013451555 0.35000002 1712411 0 0 1 0
0.018206399 0.013451555 0.35000002 1778204 -0 0 1 0
0.019549031 0.013451555 0.35000002 1712411 0 0 1 0
0.020891665 0.013451555 0.35000002 1778204 0 0 1 0
0.021786751 0.013451555 0.35000002 1778204 0 0 1 0
0.02268184 0.013451555 0.35000002 1843997 0 0 1 0
0.02357693 0.013451555 0.35000002 1778204 0 0 1 0
0.024472019 0.013451555 0.35000002 1778204 0 0 1 0
0.025367107 0.013451555 0.35000002 1778204 -0 0 1 0
0.026262194 0.013451555 0.34999841 1778204 -0.00024497969 -0.00014078102 0.99999994 1.2906512e-05
0.02715729 0.013451559 0.34999412 1778204 -0.00094329839 -0.00062811852 0.99999934 5.0094244e-05
0.028499952 0.013451583 0.34998739 1778204 -0.0022770751 -0.0017360976 0.99999589 0.00011987946
0.029842647 0.013451643 0.34997994 1778204 -0.0039272066 -0.0035700817 0.99998593 0.00021558197
0.030737929 0.013451757 0.34996605 1778204 -0.0068523488 -0.0049681701 0.99996418 0.00033816058
0.031633366 0.013451934 0.349951 1778204 -0.010420918 -0.0064522522 0.9999249 0.00046487874
0.032528795 0.013452088 0.34994209 1778204 -0.014219287 -0.0080613084 0.99986643 0.00055356172
0.033424385 0.013452243 0.34993279 1778204 -0.019078052 -0.0093244109 0.99977452 0.00064814888
0.034319766 0.013452315 0.34993351 1778204 -0.024169996 -0.010722301 0.99965036 0.00070990314
0.035214916 0.013452297 0.34994084 1843997 -0.029154519 -0.012069969 0.99950206 0.00075163535
0.036109813 0.013452156 0.34995419 1778204 -0.034088947 -0.013019912 0.99933398 0.00077826908
0.037450969 0.013451612 0.34999597 1778204 -0.040551186 -0.01457901 0.99907112 0.00077492115
0.038790811 0.013450727 0.35005617 1843997 -0.046057459 -0.015498349 0.99881858 0.000745931
0.039683238 0.013449938 0.35010728 1843997 -0.049227517 -0.015970273 0.99865991 0.00072114763
0.040575154 0.013449012 0.35016426 1843997 -0.052265991 -0.016420588 0.9984982 0.00070615893
0.041466635 0.013448092 0.35022715 1843997 -0.054999348 -0.016329903 0.99835283 0.00069350214
0.042357761 0.01344702 0.35029769 1843997 -0.056478284 -0.016391652 0.99826926 0.00068409741
0.043249004 0.013445926 0.35037088 1843997 -0.056972686 -0.016155733 0.998245 0.00067938189
0.044140048 0.013444804 0.35044208 1843997 -0.057466783 -0.015986217 0.99821943 0.00069572916
-0.03012811 0.014346406 0.35003054 1581855 0.022782218 -0.016017839 0.99961215 0.0003816807
-0.029233161 0.014346528 0.35001615 1514779 0.019365136 -0.013625265 0.99971962 0.00034697651
-0.028338168 0.014346611 0.35000482 1514779 0.016580107 -0.011595771 0.99979532 0.00032076266
-0.027443146 0.014346667 0.34999594 1514779 0.013817942 -0.009901545 0.99985552 0.00029421863
-0.026548099 0.014346704 0.34998915 1646365 0.011521792 -0.0084413337 0.99989802 0.00027003657
-0.025653033 0.014346726 0.34998417 1712158 0.0095021948 -0.0071927374 0.99992901 0.0002464382
-0.024757937 0.014346722 0.34998256 1777951 0.007444072 -0.0057583838 0.99995571 0.00021199801
-0.023862835 0.014346711 0.34998226 1777951 0.0058521745 -0.004552254 0.99997252 0.00017967148
-0.022520175 0.014346685 0.34998474 1712158 0.0038164821 -0.0029639716 0.99998832 0.00013158738
-0.021177534 0.014346675 0.34998566 1712158 0.0026342215 -0.0021150205 0.99999428 0.00010510689
-0.020282427 0.014346658 0.3499898 1843744 0.0016736229 -0.0013329483 0.99999774 7.2467956e-05
-0.019387331 0.014346652 0.3499918 1843744 0.0011386247 -0.00092960399 0.99999893 5.6190263e-05
-0.018492235 0.014346644 0.34999606 1777951 0.00050315913 -0.00039560327 0.99999982 2.7330905e-05
-0.017597144 0.014346642 0.35000002 1777951 -0 0 1 0
-0.016702054 0.014346642 0.35000002 1777951 -0 0 1 0
-0.015806967 0.014346642 0.35000002 1712158 -0 0 1 0
-0.014464334 0.014346642 0.35000002 1646365 0 0 1 0
-0.013121702 0.014346642 0.35000002 1712158 0 0 1 0
-0.012226612 0.014346642 0.35000002 1712158 0 0 1 0
-0.011331524 0.014346642 0.35000002 1646365 0 0 1 0
-0.010436435 0.014346642 0.35000002 1712158 -0 0 1 0
-0.0095413467 0.014346642 0.35000002 1712411 0 0 1 0
-0.0086462582 0.014346642 0.35000002 1646618 -0 0 1 0
-0.0077511696 0.014346642 0.35000002 1646618 -0 0 1 0
-0.0068560811 0.014346642 0.35000002 1515032 -0 0 1 0
-0.0055134483 0.014346642 0.35000002 1449239 -0 0 1 0
-0.0041708155 0.014346642 0.35000002 1515032 0 0 1 0
-0.0032757269 0.014346642 0.35000002 1449239 0 0 1 0
-0.0023806382 0.014346642 0.35000002 1383446 0 0 1 0
-0.0014855497 0.014346642 0.35000002 1383446 -0 0 1 0
-0.00059046119 0.014346642 0.35000002 1449239 -0 0 1 0
0.00030462732 0.014346642 0.35000002 1515032 -0 0 1 0
0.0011997159 0.014346642 0.35000002 1646618 -0 0 1 0
0.0025423486 0.014346642 0.35000002 1646618 0 0 1 0
0.0038849816 0.014346642 0.35000002 1515032 0 0 1 0
0.0047800699 0.014346642 0.35000002 1449239 0 0 1 0
0.0056751585 0.014346642 0.35000002 1449239 0 0 1 0
0.006570247 0.014346642 0.35000002 1449239 -0 0 1 0
0.007465336 0.014346642 0.35000002 1449239 0 0 1 0
0.0083604241 0.014346642 0.35000002 1449239 -0 0 1 0
0.0092555126 0.014346642 0.35000002 1449239 -0 0 1 0
0.010150601 0.014346642 0.35000002 1449239 -0 0 1 0
0.011493234 0.014346642 0.35000002 1646618 -0 0 1 0
0.012835867 0.014346642 0.35000002 1646618 0 0 1 0
0.013730954 0.014346642 0.35000002 1646618 0 0 1 0
0.014626044 0.014346642 0.35000002 1712411 0 0 1 0
0.015521132 0.014346642 0.35000002 1646618 -0 0 1 0
0.01641622 0.014346642 0.35000002 1712411 -0 0 1 0
0.017311309 0.014346642 0.35000002 1712411 -0 0 1 0
0.018206399 0.014346642 0.35000002 1778204 -0 0 1 0
0.019549031 0.014346642 0.35000002 1778204 0 0 1 0
0.020891665 0.014346642 0.35000002 1778204 0 0 1 0
0.021786751 0.014346642 0.35000002 1778204 0 0 1 0
0.02268184 0.014346642 0.35000002 1843997 0 0 1 0
0.02357693 0.014346642 0.35000002 1778204 0 0 1 0
0.024472019 0.014346642 0.35000002 1778204 -0 0 1 0
0.025367107 0.014346642 0.34999821 1778204 -0.00024953778 -0.00011509415 0.99999994 1.2986732e-05
0.0262622 0.014346645 0.34999529 1778204 -0.00075958832 -0.0003810522 0.99999964 3.7630347e-05
0.027157305 0.014346655 0.34998995 1778204 -0.00173849 -0.0010192713 0.99999797 8.5146341e-05
0.02849998 0.014346687 0.34998426 1778204 -0.0032591915 -0.0022567369 0.99999213 0.00016238241
0.02984269 0.014346754 0.34997779 1778204 -0.0053021577 -0.0042179427 0.99997705 0.00026273105
0.030738022 0.014346885 0.34996367 1778204 -0.0085508535 -0.0057487329 0.99994689 0.0003895605
0.031633396 0.014347025 0.34995368 1778204 -0.011869119 -0.007260751 0.9999032 0.00049367308
0.032528814 0.014347168 0.34994605 1778204 -0.015840655 -0.0089187818 0.99983478 0.00058102718
0.033424299 0.014347292 0.34994042 1778204 -0.020609122 -0.010321719 0.99973434 0.00066324061
0.034319531 0.014347319 0.34994468 1778204 -0.025554661 -0.011853671 0.99960315 0.0007145381
0.035214521 0.014347242 0.34995496 1843997 -0.030426433 -0.013406304 0.99944711 0.00075037353
0.036109198 0.014347035 0.34997204 1843997 -0.03511522 -0.014459805 0.99927866 0.0007706426
0.037450135 0.014346409 0.35001579 1843997 -0.04147923 -0.01589467 0.99901295 0.00077002024
0.038789619 0.014345372 0.35008085 1843997 -0.046612091 -0.017035015 0.99876779 0.00073496107
0.03968193 0.014344532 0.35013294 1843997 -0.049684539 -0.017445745 0.99861258 0.00071197591
0.040573787 0.014343564 0.35018983 1843997 -0.052663669 -0.01779194 0.9984538 0.00070000131
0.041465178 0.014342555 0.35025409 1843997 -0.055087533 -0.017728202 0.99832416 0.00068777375
0.042356357 0.01434138 0.3503246 1843997 -0.056328628 -0.017831532 0.99825305 0.00067790609
0.04324764 0.014340269 0.35039508 1843997 -0.056870021 -0.017611945 0.99822623 0.00067934248
0.044138648 0.014339029 0.35046434 1843997 -0.057500683 -0.017552558 0.99819118 0.00069794856
-0.03012776 0.0152412 0.35004935 1581855 0.032422084 -0.022589445 0.99921894 0.00056009594
-0.029232971 0.015241456 0.35002789 1514779 0.027449256 -0.019238723 0.99943805 0.00051125692
-0.028338077 0.015241625 0.35001194 1514779 0.02338274 -0.016372701 0.99959248 0.00046815394
-0.02744313 0.015241742 0.34999883 1514779 0.019739384 -0.01400963 0.99970698 0.00043039621
-0.026548132 0.015241819 0.3499887 1646365 0.016492346 -0.011933238 0.99979275 0.00039752823
-0.025653049 0.015241828 0.34998491 1712158 0.012288943 -0.0092594391 0.99988163 0.00029279137
-0.024757983 0.015241851 0.34998 1777951 0.010273651 -0.0078513529 0.99991637 0.0002690659
-0.023862889 0.015241847 0.34997806 1777951 0.0082541099 -0.0063514137 0.99994576 0.00023615379
-0.022520209 0.015241804 0.3499808 1712158 0.0055212779 -0.0041557504 0.9999761 0.00017177926
-0.021177551 0.01524178 0.34998301 1712158 0.0035860345 -0.0027673836 0.99998975 0.00013133216
-0.020282442 0.015241759 0.34998667 1909537 0.0024975201 -0.0018955633 0.99999511 9.8444543e-05
-0.019387335 0.015241745 0.34999052 1909537 0.0015763196 -0.00120305 0.99999803 6.8847083e-05
-0.018492242 0.015241739 0.34999257 1777951 0.0010520844 -0.00080927945 0.99999911 5.3157997e-05
-0.017597146 0.015241734 0.34999636 1777951 0.00046258638 -0.0003460575 0.99999982 2.6051634e-05
-0.016702054 0.015241732 0.35000002 1777951 -0 0 1 0
-0.015806967 0.015241732 0.35000002 1712158 -0 0 1 0
-0.014464334 0.015241732 0.35000002 1646365 0 0 1 0
-0.013121702 0.015241732 0.35000002 1712158 -0 0 1 0
-0.012226612 0.015241732 0.35000002 1712158 0 0 1 0
-0.011331524 0.015241732 0.35000002 1646365 0 0 1 0
-0.010436435 0.015241732 0.35000002 1712158 0 0 1 0
-0.0095413467 0.015241732 0.35000002 1712411 -0 0 1 0
-0.0086462582 0.015241732 0.35000002 1515032 -0 0 1 0
-0.0077511696 0.015241732 0.35000002 1646618 -0 0 1 0
-0.0068560811 0.015241732 0.35000002 1515032 0 0 1 0
-0.0055134483 0.015241732 0.35000002 1449239 -0 0 1 0
-0.0041708155 0.015241732 0.35000002 1515032 0 0 1 0
-0.0032757269 0.015241732 0.35000002 1515032 0 0 1 0
-0.0023806382 0.015241732 0.35000002 1449239 0 0 1 0
-0.0014855497 0.015241732 0.35000002 1383446 -0 0 1 0
-0.00059046119 0.015241732 0.35000002 1515032 -0 0 1 0
0.00030462732 0.015241732 0.35000002 1515032 -0 0 1 0
0.0011997159 0.015241732 0.35000002 1646618 -0 0 1 0
0.0025423486 0.015241732 0.35000002 1646618 0 0 1 0
0.0038849816 0.015241732 0.35000002 1646618 -0 0 1 0
0.0047800699 0.015241732 0.35000002 1449239 0 0 1 0
0.0056751585 0.015241732 0.35000002 1449239 0 0 1 0
0.006570247 0.015241732 0.35000002 1449239 0 0 1 0
0.007465336 0.015241732 0.35000002 1449239 -0 0 1 0
0.0083604241 0.015241732 0.35000002 1449239 -0 0 1 0
0.0092555126 0.015241732 0.35000002 1449239 -0 0 1 0
0.010150601 0.015241732 0.35000002 1449239 0 0 1 0
0.011493234 0.015241732 0.35000002 1646618 -0 0 1 0
0.012835867 0.015241732 0.35000002 1646618 0 0 1 0
0.013730954 0.015241732 0.35000002 1646618 0 0 1 0
0.014626044 0.015241732 0.35000002 1712411 0 0 1 0
0.015521132 0.015241732 0.35000002 1712411 0 0 1 0
0.01641622 0.015241732 0.35000002 1712411 -0 0 1 0
0.017311309 0.015241732 0.35000002 1712411 -0 0 1 0
0.018206399 0.015241732 0.35000002 1778204 -0 0 1 0
0.019549031 0.015241732 0.35000002 1778204 0 0 1 0
0.020891665 0.015241732 0.35000002 1778204 -0 0 1 0
0.021786751 0.015241732 0.35000002 1778204 0 0 1 0
0.02268184 0.015241732 0.35000002 1843997 0 0 1 0
0.02357693 0.015241732 0.35000002 1778204 0 0 1 0
0.024472019 0.015241732 0.35000002 1778204 0 0 1 0
0.025367109 0.015241733 0.34999651 1778204 -0.00051477842 -0.00021346683 0.99999982 2.53205e-05
0.026262207 0.015241738 0.34999228 1778204 -0.0013099591 -0.00059372006 0.99999899 6.1275743e-05
0.027157325 0.015241755 0.34998658 1778204 -0.0025274793 -0.0013208177 0.99999595 0.00011752263
0.028500009 0.015241791 0.34998181 1778204 -0.0043262853 -0.0027144242 0.99998695 0.00019981743
0.029842731 0.01524186 0.34997672 1778204 -0.0066263927 -0.0047499472 0.99996674 0.00030395738
0.030738061 0.015241978 0.34996495 1778204 -0.010018107 -0.0063062394 0.9999299 0.00042300517
0.031633403 0.015242102 0.34995732 1778204 -0.013375492 -0.0078972168 0.99987936 0.00051663909
0.032528762 0.015242217 0.34995243 1778204 -0.017379703 -0.0096618868 0.99980229 0.00059597113
0.033424113 0.015242294 0.3499507 1778204 -0.022179602 -0.011200223 0.99969125 0.00066839205
0.034319207 0.015242273 0.34995794 1843997 -0.026952859 -0.01281938 0.99955451 0.00071350706
0.035214018 0.015242135 0.34997153 1843997 -0.03171413 -0.014485165 0.99939203 0.00074539625
0.036108449 0.015241843 0.3499926 1843997 -0.036233831 -0.015637457 0.99922097 0.00076002011
0.037449006 0.015241068 0.35004193 1843997 -0.042356636 -0.017234663 0.99895388 0.00075154024
0.03878824 0.015239932 0.35010889 1843997 -0.047367621 -0.018298216 0.99870992 0.00072044216
0.039680395 0.015238987 0.35016277 1843997 -0.050234817 -0.019018058 0.99855638 0.00070045545
0.040572103 0.015237939 0.35022116 1909790 -0.053077098 -0.019376561 0.99840242 0.00068833336
0.041463397 0.015236771 0.35028714 1843997 -0.055216834 -0.019489925 0.99828416 0.00067745562
0.042354651 0.015235478 0.35035756 1843997 -0.056137543 -0.019671621 0.99822921 0.00066901866
0.043245919 0.015234387 0.35042512 1843997 -0.056823328 -0.01936225 0.99819648 0.00067986338
0.044136994 0.015233217 0.3504903 1843997 -0.057533313 -0.019155219 0.99815983 0.0007057116
-0.030127244 0.016135862 0.35007355 1581855 0.041311845 -0.028699214 0.99873406 0.00070444174
-0.029232679 0.016136291 0.35004216 1449499 0.034790453 -0.02501685 0.99908149 0.00066338643
-0.028337948 0.016136598 0.35001856 1514779 0.029655525 -0.021850199 0.99932134 0.00062550121
-0.027443094 0.016136799 0.35000196 1514779 0.025283406 -0.018782549 0.99950385 0.0005777789
-0.026548157 0.016136933 0.34998921 1646365 0.021176888 -0.016066857 0.99964666 0.00053121179
-0.025653165 0.016137024 0.34997901 1712158 0.017636674 -0.013744261 0.99975002 0.000488861
-0.024758073 0.016137026 0.34997523 1712158 0.014008999 -0.010996627 0.99984139 0.00038933233
-0.023863008 0.016137052 0.34997019 1777951 0.011754519 -0.0093394751 0.99988729 0.00036122816
-0.022520296 0.016136978 0.34997275 1712158 0.0079075499 -0.006320599 0.99994874 0.00024764438
-0.021177612 0.016136929 0.3499755 1712158 0.0053545581 -0.0042765718 0.99997652 0.00019352595
-0.020282481 0.016136885 0.34998026 1975330 0.0038902261 -0.0029599504 0.99998808 0.00014899048
-0.019387357 0.016136851 0.3499856 1909537 0.0025723737 -0.0018992807 0.99999487 0.00010715671
-0.018492253 0.016136836 0.34998953 1777951 0.0016400367 -0.0012295146 0.99999791 7.8302321e-05
-0.017597154 0.016136827 0.34999317 1777951 0.00097132864 -0.00070147566 0.99999928 5.1199098e-05
-0.016702054 0.016136821 0.34999833 1777951 0.00021668668 -0.00016463951 0.99999994 1.2578182e-05
-0.015806967 0.016136821 0.35000002 1777951 0 0 1 0
-0.014464334 0.016136821 0.35000002 1646365 0 0 1 0
-0.013121702 0.016136821 0.35000002 1646365 -0 0 1 0
-0.012226612 0.016136821 0.35000002 1646365 -0 0 1 0
-0.011331524 0.016136821 0.35000002 1646365 0 0 1 0
-0.010436435 0.016136821 0.35000002 1712158 0 0 1 0
-0.0095413467 0.016136821 0.35000002 1646365 -0 0 1 0
-0.0086462582 0.016136821 0.35000002 1514779 -0 0 1 0
-0.0077511696 0.016136821 0.35000002 1514779 0 0 1 0
-0.0068560811 0.016136821 0.35000002 1449239 0 0 1 0
-0.0055134483 0.016136821 0.35000002 1515032 -0 0 1 0
-0.0041708155 0.016136821 0.35000002 1515032 -0 0 1 0
-0.0032757269 0.016136821 0.35000002 1515032 0 0 1 0
-0.0023806382 0.016136821 0.35000002 1449239 0 0 1 0
-0.0014855497 0.016136821 0.35000002 1449239 -0 0 1 0
-0.00059046119 0.016136821 0.35000002 1515032 -0 0 1 0
0.00030462732 0.016136821 0.35000002 1646618 -0 0 1 0
0.0011997159 0.016136821 0.35000002 1646618 0 0 1 0
0.0025423486 0.016136821 0.35000002 1646618 0 0 1 0
0.0038849816 0.016136821 0.35000002 1515032 -0 0 1 0
0.0047800699 0.016136821 0.35000002 1449239 -0 0 1 0
0.0056751585 0.016136821 0.35000002 1449239 0 0 1 0
0.006570247 0.016136821 0.35000002 1449239 0 0 1 0
0.007465336 0.016136821 0.35000002 1449239 -0 0 1 0
0.0083604241 0.016136821 0.35000002 1449239 -0 0 1 0
0.0092555126 0.016136821 0.35000002 1515032 0 0 1 0
0.010150601 0.016136821 0.35000002 1515032 0 0 1 0
0.011493234 0.016136821 0.35000002 1646618 -0 0 1 0
0.012835867 0.016136821 0.35000002 1646618 -0 0 1 0
0.013730954 0.016136821 0.35000002 1646618 0 0 1 0
0.014626044 0.016136821 0.35000002 1712411 0 0 1 0
0.015521132 0.016136821 0.35000002 1712411 -0 0 1 0
0.01641622 0.016136821 0.35000002 1778204 -0 0 1 0
0.017311309 0.016136821 0.35000002 1778204 -0 0 1 0
0.018206399 0.016136821 0.35000002 1778204 0 0 1 0
0.019549031 0.016136821 0.35000002 1778204 0 0 1 0
0.020891665 0.016136821 0.35000002 1778204 -0 0 1 0
0.021786751 0.016136821 0.35000002 1778204 -0 0 1 0
0.02268184 0.016136821 0.35000002 1843997 0 0 1 0
0.02357693 0.016136821 0.35000002 1778204 0 0 1 0
0.024472019 0.016136821 0.35000002 1778204 -0 0 1 0
0.025367113 0.016136823 0.34999493 1712411 -0.00078384246 -0.00029903959 0.99999964 3.7472681e-05
0.026262218 0.016136833 0.34998983 1712411 -0.0018487854 -0.00076467701 0.99999797 8.3899911e-05
0.027157348 0.016136853 0.3499839 1778204 -0.0033343304 -0.0015714895 0.99999321 0.00014781879
0.028500061 0.016136905 0.34997809 1778204 -0.0056562563 -0.0031576513 0.99997902 0.00024586983
0.029842762 0.016136957 0.34997681 1778204 -0.0079911752 -0.0052170125 0.99995446 0.00034176701
0.030738093 0.016137075 0.34996659 1712924 -0.011596207 -0.0069329808 0.99990875 0.00045826539
0.031633388 0.016137172 0.34996194 1778717 -0.015051316 -0.00853917 0.99985027 0.00054581946
0.032528676 0.016137255 0.34995976 1712924 -0.019023456 -0.010349492 0.99976546 0.00061665749
0.033423889 0.016137281 0.34996185 1712924 -0.023772599 -0.0119564 0.99964589 0.00067999045
0.034318801 0.016137183 0.34997296 1712924 -0.028529327 -0.013725915 0.99949872 0.0007206531
0.035213374 0.01613695 0.34999132 1778717 -0.033086784 -0.015386814 0.99933404 0.00074361672
0.036107548 0.016136568 0.35001621 1778717 -0.037432231 -0.016580708 0.9991616 0.00075072615
0.037447773 0.016135663 0.35006949 1778717 -0.043342024 -0.018271381 0.9988932 0.00073968136
0.038786668 0.016134374 0.35014099 1778717 -0.048086062 -0.019498006 0.99865288 0.00070660893
0.039678667 0.016133325 0.35019681 1778717 -0.050744519 -0.020245448 0.99850643 0.00068944495
0.040570293 0.016132189 0.35025558 1778717 -0.053447321 -0.020696064 0.99835616 0.00068182067
0.041461486 0.016131058 0.35032201 1778717 -0.055357065 -0.02061875 0.9982537 0.00067186903
0.042352833 0.016129797 0.35039148 1778717 -0.056037564 -0.020662529 0.99821484 0.00066775607
0.043244112 0.016128616 0.35045695 1778717 -0.056690246 -0.020444462 0.99818248 0.00068125973
0.044135261 0.016127432 0.35051969 1778717 -0.057349291 -0.020233037 0.99814916 0.00070693466
-0.03012637 0.017477671 0.35010701 1450269 0.05096674 -0.037896436 0.99798107 0.00081967138
-0.029232064 0.017478354 0.35006988 1514779 0.043624222 -0.033095106 0.99849969 0.00076317962
-0.028337529 0.017478861 0.35004058 1646365 0.037548125 -0.028758863 0.99888092 0.000712012
-0.027442839 0.017479207 0.35001826 1646365 0.0320484 -0.024854483 0.99917722 0.00065513875
-0.026548028 0.017479451 0.35000023 1646365 0.02729068 -0.021430347 0.99939781 0.00060850685
-0.02565312 0.017479615 0.3499862 1646365 0.023108626 -0.018395575 0.99956369 0.00056313933
-0.024758143 0.017479725 0.34997538 1712158 0.019551389 -0.015753981 0.99968475 0.00052222633
-0.023863116 0.017479789 0.34996757 1712158 0.01651077 -0.013459101 0.99977309 0.00048670702
-0.022520522 0.017479837 0.34995964 1712158 0.012716627 -0.010501213 0.99986398 0.00044334659
-0.021177815 0.017479805 0.34995851 1778207 0.0087390738 -0.0081945648 0.99992824 0.00036771732
-0.02028265 0.017479721 0.34996271 1909794 0.0066381735 -0.0064531625 0.99995714 0.00029387765
-0.019387491 0.017479654 0.34996691 1844001 0.004837356 -0.0051387865 0.99997509 0.000255953
-0.018492324 0.017479569 0.34997466 1712415 0.0031766377 -0.0036787936 0.9999882 0.00019650375
-0.017597185 0.017479502 0.34998313 1778207 0.0019608727 -0.0022692399 0.99999553 0.00013479911
-0.016702073 0.017479477 0.34998822 1712415 0.0011731604 -0.00152927 0.99999815 9.6126198e-05
-0.015806971 0.017479459 0.34999421 1712415 0.0004487517 -0.00081963465 0.99999958 4.8200902e-05
-0.014464334 0.017479453 0.34999868 1449243 4.4115062e-05 -0.00027236392 0.99999994 1.2430531e-05
-0.013121702 0.017479459 0.34999555 1580829 1.7968967e-05 -0.00075782184 0.9999997 3.6116959e-05
-0.012226612 0.017479463 0.34999406 1580829 3.8567665e-05 -0.00099818956 0.99999952 4.8131216e-05
-0.011331524 0.017479463 0.34999394 1515036 -2.1771328e-05 -0.0010195355 0.99999946 4.9199996e-05
-0.010436435 0.017479463 0.34999397 1515036 -2.6463826e-05 -0.0010214834 0.99999946 4.9470967e-05
-0.0095413467 0.017479463 0.34999397 1515035 -3.1174477e-05 -0.0010219525 0.99999946 4.9470753e-05
-0.0086462582 0.017479463 0.34999394 1383450 -3.2522759e-05 -0.0010226781 0.99999946 4.9198778e-05
-0.0077511696 0.017479459 0.3499954 1449242 -1.1793374e-07 -0.00077672617 0.9999997 3.6517493e-05
-0.0068560811 0.017479459 0.34999534 1383450 -1.0573755e-06 -0.00077049702 0.9999997 3.6186437e-05
-0.0055134478 0.017479455 0.34999681 1449242 2.5239444e-05 -0.00052006426 0.99999988 2.4605215e-05
-0.0041708155 0.017479453 0.34999847 1449497 2.2172322e-05 -0.00025277495 0.99999994 1.2207753e-05
-0.0032757269 0.017479453 0.35000002 1449496 0 0 1 0
-0.0023806382 0.017479453 0.35000002 1449496 0 0 1 0
-0.0014855497 0.017479453 0.35000002 1449496 -0 0 1 0
-0.00059046119 0.017479453 0.35000002 1449496 -0 0 1 0
0.00030462732 0.017479453 0.35000002 1581082 -0 0 1 0
0.0011997159 0.017479453 0.35000002 1581082 -0 0 1 0
0.0025423486 0.017479453 0.34999841 1581082 -2.4255143e-05 -0.00025907913 0.99999994 1.2389375e-05
0.0038849816 0.017479455 0.34999689 1515289 -1.9838228e-05 -0.00051462871 0.99999988 2.4293438e-05
0.0047800699 0.017479459 0.34999546 1383703 -1.0618646e-06 -0.00076639949 0.9999997 3.6421457e-05
0.0056751585 0.017479459 0.34999543 1383702 2.0222578e-06 -0.00077953015 0.9999997 3.7259339e-05
0.006570247 0.017479459 0.34999546 1383703 7.4236425e-07 -0.000779044 0.9999997 3.7465899e-05
0.0074653355 0.017479463 0.34999397 1383703 2.7044989e-05 -0.0010214442 0.99999946 4.9470917e-05
0.0083604241 0.017479463 0.34999394 1383703 2.5126814e-05 -0.0010219556 0.99999946 4.9198912e-05
0.0092555126 0.017479463 0.34999391 1515289 2.6283491e-05 -0.0010180912 0.99999946 4.8224661e-05
0.010150601 0.017479463 0.34999382 1515289 2.7050995e-05 -0.0010108148 0.99999946 4.778929e-05
0.011493234 0.017479459 0.34999514 1646875 -1.41481e-06 -0.00078947633 0.9999997 3.6744637e-05
0.012835867 0.017479459 0.34999534 1646875 2.2152534e-07 -0.00077093032 0.9999997 3.6214617e-05
0.013730954 0.017479459 0.3499954 1646875 -1.0403294e-05 -0.00077913643 0.9999997 3.6552377e-05
0.014626044 0.017479463 0.34999406 1712667 2.6672637e-05 -0.0010198971 0.99999946 4.8996979e-05
0.015521132 0.017479463 0.34999409 1712668 2.7291311e-05 -0.0010181169 0.99999946 4.900316e-05
0.01641622 0.017479463 0.34999406 1712668 2.7816464e-05 -0.0010194879 0.99999946 4.8997492e-05
0.017311309 0.017479463 0.34999391 1712668 3.7196438e-05 -0.0010218605 0.99999946 4.8269914e-05
0.018206399 0.017479463 0.34999388 1712668 3.2778713e-05 -0.0010121934 0.99999946 4.7827209e-05
0.019549031 0.017479459 0.34999514 1712668 1.2024656e-05 -0.00079042633 0.9999997 3.6744947e-05
0.020891665 0.017479459 0.34999526 1712668 1.054679e-05 -0.00077748887 0.9999997 3.6279245e-05
0.021786751 0.017479463 0.34999391 1712668 -7.9234036e-05 -0.0010219871 0.99999946 4.7906466e-05
0.02268184 0.017479463 0.349994 1778460 -7.7697267e-05 -0.0010351276 0.99999946 4.8511843e-05
0.02357693 0.017479466 0.34999278 1712668 -2.4912109e-05 -0.001278843 0.99999917 6.1002345e-05
0.024472022 0.01747947 0.34999108 1712668 -0.00027683025 -0.0013374633 0.99999905 7.3454699e-05
0.025367135 0.017479489 0.34998474 1712667 -0.0013466146 -0.0016801987 0.99999768 0.00012052192
0.026262276 0.017479522 0.34997764 1712667 -0.0029580737 -0.0023176789 0.99999297 0.00018258677
0.027157445 0.017479572 0.34997153 1712668 -0.0047839177 -0.0032314437 0.99998331 0.00025114522
0.028500209 0.017479664 0.34996673 1712668 -0.0075062308 -0.0050574034 0.99995905 0.00035936397
0.029842958 0.017479762 0.34996554 1712668 -0.010583214 -0.0076959087 0.99991441 0.00046075927
0.030738289 0.0174799 0.34995952 1712924 -0.01412535 -0.0097062448 0.99985313 0.00055708102
0.031633571 0.01748001 0.34995744 1712924 -0.017825507 -0.011794388 0.99977154 0.00063376158
0.032528773 0.017480042 0.34996027 1712924 -0.022044407 -0.013799063 0.99966174 0.00068863278
0.033423778 0.017479964 0.34996888 1712924 -0.026395593 -0.015713606 0.99952805 0.00072815764
0.034318481 0.01747972 0.34998477 1712924 -0.031152969 -0.017315935 0.99936461 0.00075129943
0.03521267 0.017479237 0.35001156 1844255 -0.035203997 -0.018928608 0.99920088 0.00075185072
0.036106426 0.01747858 0.35004443 1778719 -0.038985521 -0.020210326 0.99903536 0.00075047259
0.037446175 0.017477289 0.35010475 1844254 -0.044455592 -0.02176781 0.99877417 0.00073590508
0.038784534 0.017475612 0.35018557 1844510 -0.048733648 -0.022710718 0.99855357 0.00070240773
0.039676204 0.017474456 0.35024625 1778717 -0.051196482 -0.022728607 0.99842995 0.00068200339
0.040567562 0.017473245 0.35030949 1778717 -0.053641949 -0.022738893 0.99830133 0.00067228609
0.041458737 0.017471977 0.35037801 1778717 -0.055053718 -0.022607507 0.99822742 0.00066416559
0.042349864 0.017470701 0.35044906 1778717 -0.05575731 -0.022368841 0.99819374 0.0006642979
0.043241221 0.017469769 0.35051036 1778717 -0.056288321 -0.021796489 0.99817663 0.00068361964
0.044132341 0.017468795 0.35056973 1778717 -0.056975018 -0.021300947 0.99814832 0.00071031146
-0.030124996 0.018819174 0.35016295 1516062 0.063733339 -0.047240201 0.99684823 0.00090316904
-0.029231058 0.018820189 0.35011554 1581085 0.054712519 -0.041010968 0.99765956 0.00083407748
-0.028336804 0.018820917 0.35007721 1712158 0.047087714 -0.035560597 0.99825758 0.00076974864
-0.027442329 0.018821431 0.3500469 1777951 0.040446263 -0.030794673 0.99870706 0.00071214215
-0.026547726 0.018821819 0.35001981 1646365 0.0340099 -0.026811739 0.99906176 0.00067223993
-0.025652964 0.018822107 0.34999844 1646365 0.028435079 -0.02331209 0.99932379 0.0006370974
-0.024758069 0.018822307 0.34998277 1712411 0.023871185 -0.02026551 0.99950963 0.00060455373
-0.023863114 0.018822474 0.34996954 1712411 0.019882238 -0.017995309 0.99964035 0.00058219244
-0.022520602 0.01882267 0.34995455 1712411 0.015066593 -0.01524735 0.99977022 0.00055308838
-0.021177981 0.018822696 0.34994906 1843997 0.011668296 -0.01248394 0.99985397 0.00050738431
-0.020282885 0.018822681 0.34994748 2041889 0.0098466668 -0.010913576 0.99989194 0.00048251497
-0.019387703 0.018822569 0.34995142 1844510 0.00774079 -0.0090410048 0.99992919 0.00041033688
-0.018492529 0.018822495 0.34995484 1712671 0.0058511277 -0.0076699704 0.99995345 0.00035193202
-0.017597359 0.01882242 0.34995896 1778464 0.0042797085 -0.006437975 0.99997014 0.00031601239
-0.016702183 0.018822327 0.34996527 1712671 0.0028674514 -0.0052909194 0.99998188 0.00026927277
