# .PCD v0.7 - Point Cloud Data file format
VERSION 0.7
FIELDS x y z rgb normal_x normal_y normal_z curvature
SIZE 4 4 4 4 4 4 4 4
TYPE F F F U F F F F
COUNT 1 1 1 1 1 1 1 1
WIDTH 596
HEIGHT 1
VIEWPOINT 0 0 0 1 0 0 0
POINTS 596
DATA ascii
0.061679423 0.033529144 0.34288833 9740191 -0.047987651 -0.0050997767 0.99883491 0.0022044617
0.062563755 0.033529218 0.34289739 9674398 -0.05950845 -0.0068616709 0.99820423 0.002418651
0.063446894 0.033529177 0.34292144 9674398 -0.071976855 -0.0088116787 0.99736738 0.0025223426
0.064329386 0.033528972 0.34295246 9805214 -0.086974263 -0.010689778 0.99615318 0.0026242582
0.065210126 0.033528488 0.34300217 9805214 -0.10440525 -0.01273045 0.99445337 0.0027264003
0.066526867 0.033527147 0.34311926 9805214 -0.13494845 -0.016149353 0.99072099 0.0028132335
0.067837514 0.033524796 0.34328005 9739421 -0.17147864 -0.020562459 0.98497325 0.0029669851
0.068706438 0.033522576 0.34341416 9608605 -0.20017691 -0.024029462 0.97946507 0.0030816076
0.069569685 0.033519495 0.34357685 9542812 -0.23249136 -0.028195797 0.97218966 0.0031638325
-0.024502041 0.03441254 0.34254834 10003876 -0.060134672 7.759047e-05 0.99819028 0.00060033542
-0.023184439 0.034412578 0.34267852 9938083 -0.056108542 -9.7187731e-06 0.99842465 0.00080441241
-0.022306284 0.034412548 0.34277046 9938083 -0.051220965 0.00014809487 0.99868733 0.0010523131
-0.021427007 0.034412503 0.34285459 9938083 -0.04504931 0.00051980396 0.99898463 0.0013140686
-0.020546366 0.034412518 0.3429279 9872290 -0.037787169 0.00094000006 0.99928534 0.0015557584
-0.019664412 0.034412608 0.34299043 9938083 -0.029361635 0.0011199482 0.99956822 0.0017821981
-0.018781148 0.03441269 0.34303641 9938083 -0.020399038 0.0014688831 0.99979085 0.0019524789
-0.017454688 0.034412768 0.34304845 9938083 -0.0081834653 0.002680942 0.99996293 0.002008799
-0.016128203 0.034412678 0.34301072 9938083 0.0035524589 0.0044816681 0.99998367 0.001960963
-0.015244178 0.034412477 0.34297603 9872290 0.01164959 0.0055524991 0.99991673 0.0019145833
-0.014360655 0.034411971 0.34291017 9938083 0.016148765 0.0068048234 0.99984646 0.0018035935
-0.013477731 0.034411293 0.34283534 9938083 0.019618606 0.0077812411 0.99977726 0.0016821201
-0.012595183 0.034410425 0.34275553 9872290 0.021858016 0.0088141682 0.99972224 0.001550521
-0.011712791 0.034409538 0.34268093 9872290 0.023332868 0.009515618 0.99968249 0.0014565364
-0.010830013 0.034408782 0.34261143 9872290 0.022950985 0.010044459 0.99968612 0.0013871547
-0.0099452725 0.034407996 0.34256598 9872290 0.018724388 0.010834869 0.99976599 0.0014060141
-0.0028607496 0.034407727 0.34254804 9872290 -0.01703224 0.011343316 0.99979061 0.0014005355
-0.0015339222 0.034408595 0.34261224 9872290 -0.022471879 0.010631976 0.99969095 0.0012977181
-0.00020762716 0.034409851 0.34269947 9872290 -0.027387673 0.0092362454 0.99958223 0.0012180249
0.00067573041 0.034410562 0.34276295 9872290 -0.029272281 0.0084081683 0.9995361 0.001128191
0.0015587045 0.034411274 0.34282655 9872290 -0.030445077 0.0074054217 0.99950904 0.0010417063
0.0024413799 0.034411848 0.34288874 9872290 -0.030995751 0.006495628 0.99949843 0.00094945892
0.0033240197 0.034412269 0.3429426 9806497 -0.030715074 0.0055526616 0.99951273 0.00085789122
0.0042067342 0.034412567 0.34298977 9806497 -0.029650131 0.0046190093 0.99954969 0.00077421515
0.0055316384 0.034412742 0.343034 9806497 -0.025733551 0.0031149604 0.99966401 0.0006680048
0.0068577868 0.034412734 0.34304646 9806497 -0.018497434 0.0020209949 0.99982685 0.00056611659
0.0077420468 0.034412704 0.34304905 9806497 -0.013760083 0.0012950881 0.99990451 0.0004802389
0.0086264526 0.034412663 0.34304297 9806497 -0.0098800901 0.00075195264 0.99995089 0.00037403384
0.0095108617 0.034412634 0.34303048 9806497 -0.0061120568 0.00026114227 0.99998128 0.00025183384
0.01039517 0.034412622 0.3430143 9806497 -0.002583826 2.067171e-05 0.99999666 0.00011224885
0.011279332 0.034412622 0.34300002 9806497 -0 0 1 0
0.012163446 0.034412622 0.34300002 9674911 0 0 1 0
0.013489617 0.034412622 0.34300002 9740704 -0 0 1 0
0.014815787 0.034412622 0.34300002 9806497 -0 0 1 0
0.015699901 0.034412622 0.34300002 9806497 0 0 1 0
0.016584015 0.034412622 0.34300002 9806497 -0 0 1 0
0.017468128 0.034412622 0.34300002 9674911 0 0 1 0
0.018352242 0.034412622 0.34300002 9674911 -0 0 1 0
0.019236358 0.034412622 0.34300002 9674911 0 0 1 0
0.020120472 0.034412622 0.34300002 9674911 0 0 1 0
0.021446642 0.034412622 0.34300002 9674911 0 0 1 0
0.022772811 0.034412622 0.34300002 9674911 -0 0 1 0
0.023656927 0.034412622 0.34300002 9543839 0 0 1 0
0.024541039 0.034412622 0.34300002 9543839 -0 0 1 0
0.025425153 0.034412622 0.34300002 9543839 0 0 1 0
0.026309269 0.034412622 0.34300002 9675425 -0 0 1 0
0.027193381 0.034412622 0.34300002 9543839 0 0 1 0
0.028519552 0.034412622 0.34300002 9543839 -0 0 1 0
0.029845724 0.034412622 0.34300002 9543839 -0 0 1 0
0.030729836 0.034412622 0.34300002 9543839 -0 0 1 0
0.031613953 0.034412622 0.34300002 9543839 0 0 1 0
0.032498065 0.034412622 0.34300002 9543839 0 0 1 0
0.033382177 0.034412622 0.34300002 9543839 -0 0 1 0
0.034266293 0.034412622 0.34300002 9543839 0 0 1 0
0.035150405 0.034412622 0.34300002 9543839 0 0 1 0
0.036476575 0.034412622 0.34300002 9543839 0 0 1 0
0.037802748 0.034412622 0.34300002 9674911 -0 0 1 0
0.03868686 0.034412622 0.34300002 9674911 0 0 1 0
0.039570976 0.034412622 0.34300002 9674911 -0 0 1 0
0.040455088 0.034412622 0.34300002 9674911 0 0 1 0
0.041339204 0.034412622 0.34300002 9674911 -0 0 1 0
0.042223316 0.034412622 0.34300002 9674911 0 0 1 0
0.043549486 0.034412622 0.34300002 9674911 -0 0 1 0
0.044875659 0.034412622 0.34300002 9674911 -0 0 1 0
0.045759775 0.034412622 0.34300002 9674911 -0 0 1 0
0.046643887 0.034412622 0.34300002 9674911 0 0 1 0
0.047527999 0.034412622 0.34300002 9674398 -0 0 1 0
0.048412111 0.034412622 0.34300002 9740191 0 0 1 0
0.04929623 0.034412622 0.34300002 9740191 -0 0 1 0
0.050180342 0.034412622 0.34300002 9674398 0 0 1 0
0.051506512 0.034412622 0.34300002 9674398 -0 0 1 0
0.052832685 0.034412622 0.34300002 9740191 -0 0 1 0
0.053716797 0.034412622 0.34300002 9674398 0 0 1 0
0.054600909 0.034412622 0.34300002 9674398 -0 0 1 0
0.055485025 0.034412622 0.34300002 9740191 0 0 1 0
0.0563692 0.034412626 0.34298369 9740191 -0.0026655202 -0.00014937847 0.99999642 0.0001239431
0.057253584 0.034412641 0.34296331 9740191 -0.0065765232 -0.0004263017 0.9999783 0.00030561665
0.058138326 0.034412682 0.34294087 9674398 -0.012837625 -0.00087455276 0.99991721 0.00062199385
0.059465952 0.034412857 0.34291336 9674398 -0.024118336 -0.0023334853 0.99970639 0.0011921996
0.060795076 0.03441317 0.34288144 9740191 -0.039945606 -0.0043373764 0.99919242 0.0020864331
0.061679635 0.034413256 0.34288642 9674398 -0.049837578 -0.0058031259 0.99874049 0.0022730015
0.062563807 0.034413338 0.3428978 9740191 -0.06133971 -0.0076637142 0.99808753 0.0024367096
0.063446946 0.034413293 0.34292254 9674398 -0.074196324 -0.0097008096 0.9971965 0.0025500129
0.064328946 0.034413025 0.34295943 9805214 -0.088977486 -0.011567495 0.99596649 0.002625101
0.065209694 0.034412537 0.34300792 9871007 -0.1067351 -0.013704822 0.99419302 0.0027394523
0.0665261 0.034411162 0.34312645 9739421 -0.13814962 -0.01698162 0.99026579 0.002839759
0.067836128 0.034408871 0.34329313 9805214 -0.17512777 -0.021472279 0.98431152 0.0029941702
0.068704389 0.034406468 0.34343028 9674398 -0.20427653 -0.025058391 0.97859246 0.0031053999
0.069566652 0.034403201 0.3435989 9608605 -0.23687087 -0.029046886 0.97110683 0.0031829523
-0.024502017 0.035296757 0.34254855 10069669 -0.060162224 -4.5953078e-05 0.99818861 0.00059579464
-0.023184735 0.035296809 0.34268206 10003876 -0.056028888 -0.00021418231 0.99842912 0.00082096213
-0.02230667 0.035296787 0.34277561 9938083 -0.051050384 -0.00015275719 0.99869609 0.0010838724
-0.021427402 0.035296723 0.34286115 9938083 -0.044760223 0.00012146845 0.99899775 0.0013564083
-0.020546636 0.035296693 0.34293416 10003876 -0.037622839 0.00058343227 0.99929184 0.0015940394
-0.019664535 0.035296734 0.34299511 9938083 -0.029261561 0.00096731947 0.99957132 0.0018140005
-0.018781167 0.035296787 0.34304005 9938083 -0.020208174 0.00115004 0.99979514 0.0019723452
-0.017454639 0.035296831 0.34305048 9938083 -0.0071135745 0.0024040483 0.99997181 0.002031391
-0.016128186 0.035296798 0.34301332 9938083 0.0049862689 0.0039760065 0.99997967 0.0019866228
-0.015244231 0.035296593 0.34297284 9938083 0.012612236 0.0049979477 0.99990797 0.0019203895
-0.01436082 0.03529615 0.34290701 9938083 0.017357403 0.0059638633 0.99983156 0.0018226359
-0.01347794 0.03529546 0.34282908 9872290 0.02054001 0.0071065817 0.99976379 0.0017131983
-0.012595521 0.035294652 0.34275082 9872290 0.023080964 0.0080754543 0.99970096 0.0015818815
-0.011713181 0.035293862 0.34267154 9872290 0.024207948 0.00847534 0.99967104 0.0014892602
-0.010830387 0.035292998 0.34259906 9938083 0.023557985 0.009192476 0.99968022 0.0014160688
-0.0099456822 0.035292178 0.34255153 9938083 0.019517928 0.01005338 0.99975896 0.0014460639
-0.0028602635 0.035291828 0.3425332 9872290 -0.017582361 0.010687143 0.99978828 0.0014423311
-0.0015334851 0.035293031 0.34260321 9872290 -0.02329837 0.0093295323 0.99968505 0.0013315185
-0.00020722485 0.035294034 0.34268966 9872290 -0.028168045 0.0085152974 0.99956691 0.0012414189
0.0006761158 0.035294853 0.34275565 9806497 -0.030219816 0.0074122041 0.99951577 0.0011560186
0.0015590036 0.035295505 0.34282133 9872290 -0.031408027 0.0064780149 0.99948567 0.0010626372
0.0024416256 0.035296008 0.34288371 9872290 -0.031892966 0.0057734041 0.99947464 0.00096591865
0.0033241569 0.035296407 0.34293988 9806497 -0.031563889 0.004952814 0.99948949 0.00086579658
0.0042067762 0.035296686 0.34298876 9806497 -0.030518744 0.0040660561 0.9995259 0.00077718095
0.0055316687 0.035296831 0.34303236 9806497 -0.026279155 0.002780102 0.99965078 0.00067306671
0.006857676 0.035296839 0.34304935 9806497 -0.019223787 0.0017666677 0.99981362 0.00058141939
0.0077419351 0.035296798 0.3430523 9806497 -0.014595578 0.00097596069 0.99989301 0.00049987499
0.0086263632 0.035296764 0.34304658 9806497 -0.010494517 0.00048311648 0.99994481 0.00039536017
0.0095108105 0.035296742 0.34303385 9806497 -0.0065985885 0.00016619335 0.99997824 0.00027100596
0.010395158 0.035296738 0.343016 9806497 -0.0028146803 -2.8623372e-05 0.99999607 0.00012398796
0.011279332 0.035296738 0.34300002 9806497 0 0 1 0
0.012163446 0.035296738 0.34300002 9674911 0 0 1 0
0.013489617 0.035296738 0.34300002 9740704 0 0 1 0
0.014815787 0.035296738 0.34300002 9806497 -0 0 1 0
0.015699901 0.035296738 0.34300002 9674911 -0 0 1 0
0.016584015 0.035296738 0.34300002 9674911 0 0 1 0
0.017468128 0.035296738 0.34300002 9674911 -0 0 1 0
0.018352242 0.035296738 0.34300002 9674911 0 0 1 0
0.019236358 0.035296738 0.34300002 9674911 0 0 1 0
0.020120472 0.035296738 0.34300002 9674911 0 0 1 0
0.021446642 0.035296738 0.34300002 9740704 -0 0 1 0
0.022772811 0.035296738 0.34300002 9674911 -0 0 1 0
0.023656927 0.035296738 0.34300002 9674911 -0 0 1 0
0.024541039 0.035296738 0.34300002 9674911 0 0 1 0
0.025425153 0.035296738 0.34300002 9674911 -0 0 1 0
0.026309269 0.035296738 0.34300002 9806497 0 0 1 0
0.027193381 0.035296738 0.34300002 9478046 0 0 1 0
0.028519552 0.035296738 0.34300002 9543839 0 0 1 0
0.029845724 0.035296738 0.34300002 9543839 -0 0 1 0
0.030729836 0.035296738 0.34300002 9543839 -0 0 1 0
0.031613953 0.035296738 0.34300002 9543839 -0 0 1 0
0.032498065 0.035296738 0.34300002 9543839 0 0 1 0
0.033382177 0.035296738 0.34300002 9543839 0 0 1 0
0.034266293 0.035296738 0.34300002 9543839 0 0 1 0
0.035150405 0.035296738 0.34300002 9675425 0 0 1 0
0.036476575 0.035296738 0.34300002 9543839 -0 0 1 0
0.037802748 0.035296738 0.34300002 9674911 -0 0 1 0
0.03868686 0.035296738 0.34300002 9674911 -0 0 1 0
0.039570976 0.035296738 0.34300002 9674911 0 0 1 0
0.040455088 0.035296738 0.34300002 9674911 -0 0 1 0
0.041339204 0.035296738 0.34300002 9674911 0 0 1 0
0.042223316 0.035296738 0.34300002 9674911 0 0 1 0
0.043549486 0.035296738 0.34300002 9609118 0 0 1 0
0.044875659 0.035296738 0.34300002 9674911 -0 0 1 0
0.045759775 0.035296738 0.34300002 9609118 -0 0 1 0
0.046643887 0.035296738 0.34300002 9674911 -0 0 1 0
0.047527999 0.035296738 0.34300002 9740191 0 0 1 0
0.048412111 0.035296738 0.34300002 9740191 -0 0 1 0
0.04929623 0.035296738 0.34300002 9674398 0 0 1 0
0.050180342 0.035296738 0.34300002 9674398 0 0 1 0
0.051506512 0.035296738 0.34300002 9674398 -0 0 1 0
0.052832685 0.035296738 0.34300002 9674398 -0 0 1 0
0.053716797 0.035296738 0.34300002 9674398 -0 0 1 0
0.054600909 0.035296738 0.34300002 9674398 0 0 1 0
0.055485025 0.035296738 0.34300002 9674398 -0 0 1 0
0.0563692 0.035296742 0.34298366 9740191 -0.0026893951 -0.00019275281 0.99999636 0.00012414678
0.057253629 0.035296768 0.34296113 9740191 -0.0070794583 -0.00062623527 0.99997473 0.00034760815
0.058138464 0.03529682 0.34293678 9674398 -0.013594463 -0.0011408564 0.99990696 0.00069290609
0.059466232 0.035297066 0.3429085 9674398 -0.02543788 -0.0032645101 0.9996711 0.0012961045
0.060795397 0.035297457 0.34287754 9674398 -0.041405968 -0.0054180715 0.99912769 0.0021436205
0.061680086 0.035297554 0.34288159 9674398 -0.051680889 -0.0070110825 0.99863905 0.002337069
0.062563986 0.035297558 0.3428973 9740191 -0.063013434 -0.0087630013 0.99797422 0.0024636176
0.063447043 0.035297465 0.34292284 9674398 -0.076134726 -0.010601372 0.99704117 0.0025586786
0.064328887 0.035297133 0.34296122 9805214 -0.091244705 -0.012474991 0.99575037 0.0026315781
0.065209098 0.035296563 0.34301579 9871007 -0.10905205 -0.014851167 0.99392509 0.0027325919
0.066525117 0.035295121 0.34313738 9805214 -0.14082068 -0.018325048 0.98986548 0.0028362947
0.067834541 0.035292663 0.3433044 9739421 -0.17866144 -0.022448955 0.9836545 0.0030084506
0.068702161 0.035290129 0.34344473 9674398 -0.20812809 -0.026039165 0.97775489 0.0030936159
0.069563456 0.035286553 0.34361696 9542812 -0.24100728 -0.029971654 0.97006041 0.003173514
-0.024502009 0.036181107 0.34255123 10003876 -0.060482536 -0.00039123325 0.99816918 0.00059772952
-0.023184778 0.036181007 0.3426829 10003876 -0.055988945 -0.00035795401 0.99843132 0.00081452512
-0.02230677 0.036180977 0.34277618 10003876 -0.050621074 -0.00032608144 0.9987179 0.0010917529
-0.021427566 0.036180902 0.34286344 9938083 -0.044342384 -3.6424077e-05 0.9990164 0.0013717287
-0.020546742 0.036180861 0.34293655 10003876 -0.037130427 0.00023967375 0.99931037 0.0016086955
-0.019664563 0.03618085 0.34299627 9938083 -0.028863356 0.00060430024 0.99958318 0.0018189162
-0.018781146 0.036180884 0.34304041 9938083 -0.019982804 0.0010537127 0.99979979 0.0019792584
-0.017454593 0.036180925 0.34305242 9938083 -0.0064239968 0.0020347014 0.99997729 0.0020428896
-0.016128181 0.036180895 0.34301174 9938083 0.0058047739 0.0035802172 0.99997675 0.0019903865
-0.015244251 0.036180727 0.34297255 9938083 0.013650882 0.0043438091 0.99989736 0.0019336175
-0.014360908 0.036180336 0.34290525 9938083 0.018288268 0.0051904302 0.99981928 0.0018414011
-0.013478082 0.036179695 0.34282857 9872290 0.021567201 0.0064121094 0.99974686 0.0017306941
-0.01259567 0.036178991 0.34274602 9872290 0.023685414 0.0069672926 0.99969518 0.001619518
-0.011713493 0.036178112 0.34266236 9872290 0.02491908 0.0076363208 0.99966031 0.0015106377
-0.010830747 0.036177214 0.34258923 9872290 0.024317514 0.0083930111 0.99966908 0.0014385043
-0.0099460073 0.036176682 0.34254143 9938083 0.020126445 0.0087732896 0.99975896 0.0014759176
-0.0028599694 0.036176164 0.34251991 9872290 -0.017980905 0.0095832655 0.9997924 0.0014632368
-0.0015330714 0.0361773 0.34259197 9872290 -0.023989828 0.0084449034 0.99967653 0.0013595494
-0.00020686808 0.036178265 0.34268352 9872290 -0.029074691 0.0076621035 0.9995479 0.0012642044
0.00067643856 0.036179006 0.34275004 9872290 -0.031086061 0.0068432544 0.9994933 0.0011770671
0.0015592567 0.036179684 0.34281623 9806497 -0.032184198 0.0058107763 0.99946505 0.0010782983
0.0024418144 0.036180165 0.34287941 9806497 -0.032531761 0.005164742 0.99945736 0.00097083172
0.0033242537 0.03618056 0.34293833 9806497 -0.032392897 0.0043012793 0.99946594 0.00086860423
0.0042068004 0.036180805 0.34298828 9872290 -0.031373814 0.0034884997 0.99950165 0.00077839289
0.0055316407 0.036180928 0.3430326 9806497 -0.026830731 0.0023935309 0.99963713 0.00067681586
0.0068575689 0.036180925 0.34305206 9674911 -0.019990478 0.0013521576 0.99979925 0.00059204776
0.0077418219 0.036180891 0.34305587 9806497 -0.015189253 0.00075561856 0.99988437 0.00051297672
0.0086263083 0.036180861 0.34304863 9674911 -0.01083316 0.00032329353 0.99994129 0.00040792732
0.0095107919 0.03618085 0.34303486 9806497 -0.0067557362 0.00012173616 0.99997717 0.0002779678
0.010395159 0.03618085 0.34301594 9806497 -0.0028221654 2.5560188e-05 0.99999601 0.0001231209
0.011279332 0.03618085 0.34300002 9806497 0 0 1 0
0.012163446 0.03618085 0.34300002 9806497 -0 0 1 0
0.013489617 0.03618085 0.34300002 9674911 0 0 1 0
0.014815787 0.03618085 0.34300002 9674911 0 0 1 0
0.015699901 0.03618085 0.34300002 9674911 -0 0 1 0
0.016584015 0.03618085 0.34300002 9674911 -0 0 1 0
0.017468128 0.03618085 0.34300002 9674911 0 0 1 0
0.018352242 0.03618085 0.34300002 9674911 -0 0 1 0
0.019236358 0.03618085 0.34300002 9674911 0 0 1 0
0.020120472 0.03618085 0.34300002 9806497 -0 0 1 0
0.021446642 0.03618085 0.34300002 9740704 -0 0 1 0
0.022772811 0.03618085 0.34300002 9674911 -0 0 1 0
0.023656927 0.03618085 0.34300002 9674911 0 0 1 0
0.024541039 0.03618085 0.34300002 9674911 -0 0 1 0
0.025425153 0.03618085 0.34300002 9674911 0 0 1 0
0.026309269 0.03618085 0.34300002 9806497 -0 0 1 0
0.027193381 0.03618085 0.34300002 9674911 0 0 1 0
0.028519552 0.03618085 0.34300002 9478046 0 0 1 0
0.029845724 0.03618085 0.34300002 9543839 0 0 1 0
0.030729836 0.03618085 0.34300002 9543839 -0 0 1 0
0.031613953 0.03618085 0.34300002 9543839 -0 0 1 0
0.032498065 0.03618085 0.34300002 9543839 0 0 1 0
0.033382177 0.03618085 0.34300002 9543839 0 0 1 0
0.034266293 0.03618085 0.34300002 9543839 0 0 1 0
0.035150405 0.03618085 0.34300002 9543839 -0 0 1 0
0.036476575 0.03618085 0.34300002 9609375 -0 0 1 0
0.037802748 0.03618085 0.34300002 9674911 -0 0 1 0
0.03868686 0.03618085 0.34300002 9674911 0 0 1 0
0.039570976 0.03618085 0.34300002 9674911 -0 0 1 0
0.040455088 0.03618085 0.34300002 9674911 0 0 1 0
0.041339204 0.03618085 0.34300002 9674911 -0 0 1 0
0.042223316 0.03618085 0.34300002 9674911 0 0 1 0
0.043549486 0.03618085 0.34300002 9609118 0 0 1 0
0.044875659 0.03618085 0.34300002 9674911 0 0 1 0
0.045759775 0.03618085 0.34300002 9609118 -0 0 1 0
0.046643887 0.03618085 0.34300002 9674911 0 0 1 0
0.047527999 0.03618085 0.34300002 9740191 -0 0 1 0
0.048412111 0.03618085 0.34300002 9674398 0 0 1 0
0.04929623 0.03618085 0.34300002 9674398 0 0 1 0
0.050180342 0.03618085 0.34300002 9674398 -0 0 1 0
0.051506512 0.03618085 0.34300002 9739678 -0 0 1 0
0.052832685 0.03618085 0.34300002 9674398 0 0 1 0
0.053716797 0.03618085 0.34300002 9740191 -0 0 1 0
0.054600909 0.03618085 0.34300002 9674398 -0 0 1 0
0.055485025 0.03618085 0.34300002 9674398 0 0 1 0
0.056369208 0.036180858 0.34298247 9740191 -0.0029077348 -0.00030746229 0.99999571 0.00013472214
0.057253633 0.03618088 0.3429611 9740191 -0.0072022751 -0.00071197614 0.99997383 0.00034713768
0.058138624 0.036180999 0.34293154 9674398 -0.014553074 -0.001857441 0.99989235 0.00073758472
0.05946672 0.036181323 0.34289983 9674398 -0.027292293 -0.0043382156 0.99961805 0.0014177065
0.060795628 0.036181729 0.34287551 9674398 -0.043046929 -0.0067272186 0.99905038 0.0021926276
0.061680201 0.036181755 0.34288183 9674398 -0.053375892 -0.0080292299 0.99854219 0.0023462907
0.062564015 0.036181726 0.34289885 9674398 -0.064913154 -0.0096767414 0.99784398 0.0024558872
0.06344679 0.036181532 0.34292763 9674398 -0.078022525 -0.011570845 0.99688447 0.0025488129
0.064328477 0.036181193 0.34296739 9805214 -0.093266338 -0.013602391 0.99554825 0.0026256545
0.065208606 0.036180608 0.34302187 9805214 -0.11145914 -0.015756128 0.99364412 0.0027117897
0.066524014 0.036179043 0.34314811 9805214 -0.14341599 -0.019375792 0.98947281 0.0028032761
0.067832537 0.036176346 0.34332255 9739421 -0.18131121 -0.023716651 0.98313975 0.0029783568
0.068699621 0.036173631 0.34346527 9805214 -0.21101384 -0.027151506 0.97710592 0.0030742493
0.06956014 0.036170106 0.34363821 9542812 -0.24457216 -0.030537901 0.96915007 0.0031505681
-0.024502061 0.037507311 0.34255067 9608605 -0.060338479 -0.0004726882 0.99817789 0.00060276
-0.023184821 0.037507039 0.34268278 9674398 -0.055934466 -3.9183538e-05 0.99843442 0.00080878154
-0.022306757 0.037507024 0.34277543 9608605 -0.050634917 3.1821007e-06 0.99871725 0.0010830245
-0.021427574 0.037507016 0.34286278 9542812 -0.044010341 -3.3214015e-05 0.99903107 0.0013684192
-0.02054682 0.037507005 0.34293762 9608605 -0.03651046 5.1613079e-05 0.99933326 0.0016207914
-0.019664573 0.037507016 0.3429966 9543069 -0.028223263 0.0003109627 0.9996016 0.0018281061
-0.01878114 0.037507061 0.34304163 9542812 -0.019275093 0.0006882918 0.99981397 0.0019848149
-0.017454537 0.037507132 0.3430512 9608605 -0.0058115278 0.0012982439 0.9999823 0.0020495665
-0.016128171 0.037507046 0.3430106 9608605 0.0064869262 0.0021324269 0.99997669 0.0020019854
-0.015244285 0.037506912 0.34297085 9674398 0.014459353 0.003029651 0.99989086 0.0019494167
-0.014361 0.037506573 0.34290209 9674398 0.019112945 0.0038783019 0.9998098 0.0018594274
-0.013478247 0.03750604 0.34282199 9608605 0.022131093 0.0047672 0.9997437 0.0017507926
-0.012595865 0.037505411 0.34273863 9674398 0.024200246 0.0054480527 0.99969226 0.0016433962
-0.011713683 0.037504785 0.3426553 9740191 0.025387622 0.0059143207 0.99966019 0.0015348542
-0.010831062 0.037503988 0.3425799 9608605 0.024945596 0.0066148764 0.99966693 0.0014599519
-0.0099462308 0.037503641 0.3425301 9608605 0.020396018 0.0068046283 0.99976879 0.0014816581
-0.002859808 0.037503183 0.34250587 9740447 -0.01815735 0.0074623954 0.9998073 0.0014768678
-0.0015325624 0.037503973 0.34258109 9674654 -0.025017247 0.0068424833 0.99966359 0.0014115694
-0.00020654118 0.037504744 0.34267378 9674655 -0.029641392 0.0062586628 0.99954098 0.0012753287
0.0006767257 0.037505347 0.34274247 9674655 -0.031729598 0.0055978466 0.99948078 0.0011874465
0.001559492 0.037505947 0.34281176 9674655 -0.032927573 0.0047823228 0.99944627 0.0010821368
0.0024419725 0.037506454 0.3428773 9674655 -0.033430964 0.0038245837 0.9994337 0.00097785017
0.0033243406 0.03750677 0.34293705 9674655 -0.033228289 0.0031954627 0.9994427 0.00087682495
0.0042068115 0.037506983 0.34298822 9674911 -0.032305803 0.0024297023 0.99947506 0.00078294071
0.0055314824 0.037507087 0.34303662 9674911 -0.027975924 0.0013117281 0.99960774 0.0006858377
0.006857492 0.037507061 0.34305412 9674911 -0.020762229 0.00055639219 0.99978429 0.00059477321
0.0077417544 0.037507039 0.34305811 9674911 -0.015690131 0.00019720737 0.99987686 0.00051602419
0.0086262822 0.037507024 0.34304976 9543325 -0.01114528 3.8203132e-05 0.99993789 0.00040992684
0.0095108002 0.037507024 0.34303436 9674911 -0.0067998054 5.5746641e-05 0.99997687 0.00027309108
0.010395162 0.03750702 0.34301546 9609118 -0.0028002795 7.4749318e-05 0.99999607 0.00012092041
0.011279332 0.03750702 0.34300002 9674911 0 0 1 0
0.012163446 0.03750702 0.34300002 9674911 0 0 1 0
0.013489617 0.037507024 0.34300002 9543325 -0 0 1 0
0.014815787 0.03750702 0.34300002 9543325 -0 0 1 0
0.015699901 0.03750702 0.34300002 9543325 -0 0 1 0
0.016584015 0.03750702 0.34300002 9609118 -0 0 1 0
0.017468128 0.03750702 0.34300002 9609118 0 0 1 0
0.018352242 0.03750702 0.34300002 9609118 0 0 1 0
0.019236358 0.03750702 0.34300002 9609118 0 0 1 0
0.020120472 0.03750702 0.34300002 9609118 -0 0 1 0
0.021446642 0.03750702 0.34300002 9609118 -0 0 1 0
0.022772811 0.03750702 0.34300002 9609118 -0 0 1 0
0.023656927 0.03750702 0.34300002 9543325 -0 0 1 0
0.024541039 0.03750702 0.34300002 9609118 -0 0 1 0
0.025425153 0.03750702 0.34300002 9609117 0 0 1 0
0.026309269 0.03750702 0.34300002 9674910 0 0 1 0
0.027193381 0.03750702 0.34300002 9609117 0 0 1 0
0.028519552 0.03750702 0.34300002 9543324 0 0 1 0
0.029845724 0.03750702 0.34300002 9543581 0 0 1 0
0.030729836 0.03750702 0.34300002 9543581 0 0 1 0
0.031613953 0.03750702 0.34300002 9543581 0 0 1 0
0.032498065 0.03750702 0.34300002 9543581 0 0 1 0
0.033382177 0.03750702 0.34300002 9674910 -0 0 1 0
0.034266293 0.03750702 0.34300002 9609117 -0 0 1 0
0.035150405 0.03750702 0.34300002 9674910 -0 0 1 0
0.036476575 0.037507024 0.34300002 9674910 -0 0 1 0
0.037802748 0.03750702 0.34300002 9674910 0 0 1 0
0.03868686 0.03750702 0.34300002 9674910 0 0 1 0
0.039570976 0.03750702 0.34300002 9674911 -0 0 1 0
0.040455088 0.03750702 0.34300002 9674911 0 0 1 0
0.041339204 0.03750702 0.34300002 9674911 -0 0 1 0
0.042223316 0.03750702 0.34300002 9674911 -0 0 1 0
0.043549489 0.037507024 0.34300002 9674911 -0 0 1 0
0.044875659 0.03750702 0.34300002 9674911 0 0 1 0
0.045759775 0.03750702 0.34300002 9609118 0 0 1 0
0.046643887 0.03750702 0.34300002 9609118 -0 0 1 0
0.047527999 0.03750702 0.34300002 9609118 -0 0 1 0
0.048412111 0.03750702 0.34300002 9608862 -0 0 1 0
0.04929623 0.03750702 0.34300002 9674398 -0 0 1 0
0.050180342 0.03750702 0.34300002 9674398 -0 0 1 0
0.051506512 0.03750702 0.34300002 9674398 -0 0 1 0
0.052832685 0.03750702 0.34300002 9674398 -0 0 1 0
0.053716797 0.03750702 0.34300002 9740191 0 0 1 0
0.054600909 0.03750702 0.34300002 9674398 0 0 1 0
0.055485029 0.03750702 0.34299675 9674398 -0.00051956985 -0.00013251757 0.99999988 2.5180574e-05
0.05636926 0.037507042 0.34297657 9805984 -0.0038144412 -0.00076353131 0.99999243 0.00017400876
0.057253819 0.037507117 0.34295124 9740191 -0.0087692132 -0.0017017794 0.99996012 0.00042207009
0.058138896 0.037507277 0.34292394 9740191 -0.016399773 -0.0030115184 0.999861 0.00080252689
0.05946729 0.037507635 0.34289089 9674398 -0.029989365 -0.0052219206 0.99953657 0.0015341956
0.06079581 0.037508033 0.3428759 9674398 -0.045516089 -0.007973087 0.99893177 0.002167932
0.061680049 0.037508018 0.34288657 9674398 -0.055778276 -0.0094132107 0.99839878 0.0022925064
0.062563471 0.037507914 0.34290823 9674398 -0.06734775 -0.011094865 0.99766785 0.0023996439
0.063446164 0.03750769 0.34293801 9674398 -0.080883577 -0.012963899 0.99663925 0.0024894939
0.064327538 0.037507247 0.34298083 9674398 -0.096423715 -0.015183954 0.99522454 0.0025727297
0.065207295 0.037506532 0.34303841 9674398 -0.11480085 -0.017319411 0.99323756 0.0026304084
0.066521995 0.037504688 0.34316739 9608605 -0.14709757 -0.021056127 0.98889786 0.0027568066
0.067829385 0.037501663 0.34335136 9674398 -0.18520331 -0.025429619 0.98237115 0.0028606919
0.068695411 0.037498862 0.34350175 9674398 -0.21489275 -0.02828056 0.97622812 0.0029656026
0.069554992 0.037495408 0.34367973 9608605 -0.24885963 -0.031662222 0.96802187 0.0030558726
-0.024501884 0.038833335 0.34254661 9608605 -0.06025368 -0.00031543011 0.99818307 0.00060342852
-0.023184676 0.038833208 0.34267938 9608605 -0.055823348 -0.00026282537 0.99844062 0.00082422118
-0.022306535 0.038833179 0.34277165 9608605 -0.050679445 -0.00025831573 0.99871492 0.001081629
-0.021427425 0.038833186 0.34285903 9542812 -0.043964691 -0.00025990416 0.99903303 0.0013756014
-0.020546803 0.038833164 0.34293637 9608605 -0.036312498 -0.00014386183 0.99934047 0.0016447856
-0.01966464 0.038833193 0.34299946 9542812 -0.027812006 5.3458672e-05 0.99961317 0.0018570708
-0.01878115 0.038833275 0.34304383 9542812 -0.018436344 0.00036255477 0.99982995 0.0020028723
-0.017454529 0.038833328 0.34305656 9542812 -0.0050424426 0.00073248224 0.99998701 0.0020695776
-0.016128119 0.038833253 0.34301981 9542812 0.0078891013 0.0014217658 0.99996787 0.0020277184
-0.015244259 0.03883313 0.34297979 9608605 0.016194519 0.0017472137 0.99986732 0.0019765268
-0.014361077 0.038832851 0.3429091 9542812 0.020834455 0.0024678959 0.99977988 0.0018868276
-0.013478504 0.038832471 0.34282503 9608605 0.023869548 0.0029980026 0.99971056 0.0017853169
-0.012596403 0.038831905 0.34273544 9608605 0.025946675 0.0038650769 0.99965584 0.001667133
-0.011714264 0.03883132 0.34265035 9608605 0.026859853 0.0044495254 0.99962932 0.0015711921
-0.010831562 0.03883091 0.34257385 9608605 0.02601417 0.004648963 0.99965078 0.0015125958
-0.0099467328 0.038830321 0.34252194 9608605 0.021449534 0.0052730213 0.99975604 0.0015522122
-0.0028593033 0.038830053 0.3424975 9477532 -0.01898081 0.0056890445 0.99980366 0.001544334
-0.0015322933 0.038830701 0.34257045 9411739 -0.02529313 0.0052463911 0.99966633 0.0014216299
-0.00020608176 0.038831264 0.34266984 9411739 -0.03089666 0.0048266016 0.99951094 0.0013163135
0.00067709584 0.03883177 0.34274167 9411739 -0.033119801 0.0043051117 0.9994421 0.0012166693
0.0015597227 0.038832314 0.34281468 9477532 -0.034430031 0.0035460866 0.99940079 0.0011061091
0.002442033 0.038832735 0.34288225 9477532 -0.03489374 0.0027284876 0.99938732 0.00098789949
0.0033242316 0.038833 0.34294337 9411739 -0.034573648 0.0022003134 0.99939972 0.00087826612
0.0042065852 0.038833182 0.34299529 9477532 -0.033416454 0.0014888425 0.99944043 0.00078553613
0.0055312961 0.038833249 0.34304154 9411739 -0.028627573 0.00054125139 0.99958998 0.00068722019
0.0068572718 0.038833223 0.34306061 9411739 -0.02132608 -1.8859282e-06 0.99977255 0.00061218499
0.0077416757 0.038833205 0.34306076 9477532 -0.015867414 -0.0001261218 0.99987411 0.00052855525
0.0086262953 0.038833197 0.34304935 9411739 -0.010929199 -0.00011289625 0.99994028 0.00040866781
0.0095108133 0.038833197 0.34303358 9411739 -0.0065835281 -3.7751215e-05 0.9999783 0.00026925735
0.010395159 0.038833193 0.34301588 9411739 -0.0028280164 -3.0577066e-05 0.99999601 0.00012313013
0.011279332 0.038833193 0.34300002 9411739 -0 0 1 0
0.012163446 0.038833193 0.34300002 9411739 0 0 1 0
0.013489617 0.038833193 0.34300002 9345946 -0 0 1 0
0.014815787 0.038833193 0.34300002 9345946 -0 0 1 0
0.015699901 0.038833193 0.34300002 9411739 0 0 1 0
0.016584015 0.038833193 0.34300002 9411739 0 0 1 0
0.017468128 0.038833193 0.34300002 9280153 -0 0 1 0
0.018352242 0.038833193 0.34300002 9280153 0 0 1 0
0.019236358 0.038833193 0.34300002 9345946 -0 0 1 0
0.020120472 0.038833193 0.34300002 9411739 0 0 1 0
0.021446642 0.038833193 0.34300002 9345689 0 0 1 0
0.022772811 0.038833193 0.34300002 9345433 0 0 1 0
0.023656927 0.038833193 0.34300002 9213847 0 0 1 0
0.024541039 0.038833193 0.34300002 9345431 0 0 1 0
0.025425153 0.038833193 0.34299827 9411222 -6.9912254e-05 -0.00026856235 0.99999994 1.3043172e-05
0.026309269 0.038833193 0.34299836 9345429 -5.7477369e-05 -0.00027895719 0.99999994 1.2984492e-05
0.027193381 0.038833197 0.34299678 9411222 -0.0001076069 -0.00054815586 0.99999982 2.5531406e-05
0.028519554 0.038833201 0.34299392 9411223 -0.00017265964 -0.0010603061 0.9999994 4.917397e-05
0.029845726 0.038833208 0.34299228 9345431 -0.00012979429 -0.0013560787 0.99999905 6.2175313e-05
0.030729838 0.038833212 0.34299079 9477017 -0.000126106 -0.0016227677 0.99999869 7.463443e-05
0.031613953 0.03883322 0.34298947 9542810 -8.9844762e-05 -0.0018636232 0.99999827 8.6188833e-05
0.032498065 0.038833227 0.34298798 9608603 -5.3788168e-05 -0.0020882275 0.99999779 9.7849676e-05
0.033382177 0.038833238 0.34298655 9542810 -1.3598683e-05 -0.0023242631 0.99999732 0.00010881416
0.034266293 0.038833227 0.34298807 9542810 2.9076018e-05 -0.0020911167 0.99999779 9.7506076e-05
0.035150401 0.038833238 0.34298646 9543323 7.2986244e-05 -0.0023155061 0.99999732 0.00010793552
0.036476575 0.038833234 0.34298706 9477532 -1.4160838e-05 -0.0022696927 0.99999744 0.00010589501
0.037802748 0.038833238 0.34298655 9477532 5.028641e-05 -0.0022910517 0.99999738 0.0001077799
0.03868686 0.038833234 0.34298664 9477532 3.1787004e-05 -0.0022910614 0.99999738 0.00010825288
0.039570976 0.038833234 0.3429867 9542812 1.7891338e-05 -0.0022748653 0.99999744 0.00010880529
0.040455088 0.038833234 0.34298676 9608605 2.1613788e-07 -0.002279561 0.99999738 0.00010881181
0.041339204 0.038833234 0.34298679 9608605 -1.8178296e-05 -0.0023013917 0.99999738 0.00010826683
0.042223316 0.038833227 0.34298816 9674398 3.0372265e-05 -0.0020854787 0.99999785 9.6711236e-05
0.043549486 0.038833234 0.34298697 9674398 3.5579681e-06 -0.0022719663 0.99999744 0.00010423682
0.044875659 0.038833238 0.34298635 9608605 5.6253437e-05 -0.0023069126 0.99999732 0.00010581552
0.045759775 0.038833238 0.34298655 9608605 5.6920755e-05 -0.0022900081 0.99999738 0.00010788529
0.046643887 0.038833238 0.34298646 9608605 2.6393423e-05 -0.0023116232 0.99999732 0.00010868112
0.047527999 0.038833238 0.34298652 9608603 1.2155171e-05 -0.0022932969 0.99999738 0.00010928918
0.048412111 0.038833227 0.3429881 9608603 4.9655817e-05 -0.0020850024 0.99999785 9.7822558e-05
0.04929623 0.03883322 0.34298962 9674396 9.934471e-05 -0.0018450598 0.99999827 8.6027496e-05
0.050180342 0.038833212 0.34299114 9542810 0.00011046127 -0.0015936812 0.99999875 7.3721349e-05
0.051506512 0.038833212 0.3429912 9608603 0.00010663659 -0.0015496825 0.99999881 7.2424948e-05
0.052832685 0.038833212 0.3429907 9674396 9.9494442e-05 -0.0015517152 0.99999881 7.3702729e-05
0.053716797 0.038833216 0.34299055 9740189 2.1821506e-05 -0.0015600711 0.99999881 7.440443e-05
0.054600909 0.038833212 0.34299067 9674396 -3.5900463e-05 -0.0015613961 0.99999881 7.4534604e-05
0.055485066 0.038833253 0.34298083 9805212 -0.0015122745 -0.0022453985 0.99999636 0.00014600807
0.056369439 0.038833383 0.34295884 9805214 -0.0053047752 -0.0034293167 0.99998003 0.0002999978
0.057254314 0.038833633 0.34292874 9871007 -0.011079093 -0.004730748 0.99992746 0.0006099951
0.058139581 0.038833953 0.34290352 9805214 -0.018510172 -0.0062658465 0.99980903 0.00095189916
0.059468161 0.038834427 0.34287483 9739421 -0.032252058 -0.0084878318 0.99944371 0.0016203658
0.060796186 0.038834684 0.34287053 9805214 -0.046943404 -0.010623889 0.99884105 0.0021609878
0.061680268 0.038834527 0.34288505 9805214 -0.057557888 -0.011877339 0.99827152 0.0023045011
0.062563576 0.038834307 0.34290889 9805214 -0.069431923 -0.013231837 0.99749893 0.0024013764
0.063445911 0.038833942 0.34294328 9674398 -0.083185852 -0.014912486 0.99642247 0.0024959438
0.064326867 0.03883332 0.34299052 9739421 -0.099256657 -0.016534947 0.99492449 0.0025715362
0.065205894 0.038832426 0.34305492 9805214 -0.11800138 -0.018816167 0.99283516 0.0026539811
0.066519387 0.038830355 0.34319431 9739421 -0.15066274 -0.021991396 0.98834062 0.0027094868
0.067825638 0.038827226 0.34338129 9805214 -0.18942466 -0.026345029 0.98154175 0.0028624581
0.068690509 0.038823955 0.34353486 9805214 -0.21930033 -0.029717213 0.97520471 0.0029340717
0.069548689 0.038820092 0.34371725 9739421 -0.25338697 -0.033181075 0.96679574 0.0030062844
-0.024501693 0.03971827 0.3425391 9543325 -0.05988723 -0.0016855695 0.99820375 0.00061919063
-0.023184491 0.039717726 0.34267405 9543325 -0.055579301 -0.0011770608 0.99845356 0.00083580369
-0.022306401 0.03971751 0.3427673 9608605 -0.050458822 -0.00093513809 0.99872571 0.0010854714
-0.021427354 0.039717369 0.3428562 9542812 -0.043831628 -0.00067774183 0.9990387 0.0013832634
-0.020546749 0.039717305 0.34293395 9608605 -0.03620889 -0.00041029727 0.99934417 0.0016539188
-0.019664604 0.039717309 0.34299785 9608605 -0.027439538 -0.00030212014 0.99962342 0.0018672246
-0.018781127 0.03971735 0.34304354 9608605 -0.018189093 -2.449296e-05 0.99983454 0.0020205274
-0.017454535 0.039717402 0.34305879 9542812 -0.0047612851 0.0004605171 0.99998856 0.0020790414
-0.016128093 0.039717365 0.3430241 9608605 0.0083972132 0.0010964859 0.99996412 0.0020464722
-0.015244228 0.039717272 0.34298387 9674398 0.016547306 0.0011528661 0.99986243 0.0019952895
-0.01436109 0.039717078 0.34291276 9542812 0.021435287 0.0016535504 0.99976885 0.0019038651
-0.013478565 0.039716762 0.34282804 9608605 0.02452058 0.0023033274 0.99969667 0.0018039549
-0.012596588 0.039716318 0.34273925 9542812 0.026833139 0.0029421868 0.99963558 0.0016778364
-0.011714479 0.039715856 0.34265187 9608605 0.027487602 0.0033427943 0.99961656 0.0015957559
-0.010831834 0.039715275 0.34257641 9608605 0.026636573 0.0038678402 0.99963772 0.0015390336
-0.0099470299 0.039714731 0.34252292 9477532 0.022053845 0.0043863119 0.99974716 0.0015834641
-0.0028590802 0.039714653 0.34249547 9477532 -0.019387877 0.0044624116 0.99980205 0.0015800175
-0.001532167 0.03971526 0.34257001 9411739 -0.025637094 0.0041274861 0.99966282 0.001448712
-0.00020592015 0.039715741 0.34267035 9411739 -0.03141981 0.0037637507 0.9994992 0.0013365712
0.00067722367 0.039716255 0.34274322 9411739 -0.033742733 0.0031737767 0.99942553 0.0012300883
0.0015597779 0.039716709 0.3428174 9477532 -0.035167377 0.0024495646 0.99937844 0.0011164204
0.0024420312 0.03971697 0.34288499 9477532 -0.035566203 0.0020026627 0.99936533 0.00099864404
0.0033241655 0.03971719 0.34294659 9411739 -0.035224564 0.0014253666 0.99937838 0.00088399503
0.0042064837 0.039717305 0.34299827 9477532 -0.033882726 0.00070451258 0.99942559 0.00078901387
0.0055311825 0.039717343 0.34304419 9411739 -0.029053975 0.00014414053 0.99957782 0.0006915236
0.0068572173 0.039717335 0.34306204 9411739 -0.021467471 -2.8161972e-05 0.99976957 0.00062242144
0.0077416911 0.039717332 0.34306008 9477532 -0.015869765 -5.337211e-05 0.99987406 0.0005352872
0.0086263157 0.039717298 0.34304759 9411739 -0.011012171 -0.00040116787 0.99993926 0.00042747337
0.0095108403 0.039717291 0.3430301 9411739 -0.0066534723 -0.00057859288 0.99997771 0.00029931674
0.010395178 0.039717298 0.34301069 9411739 -0.0028753513 -0.00083121547 0.99999553 0.00016391302
0.011279332 0.039717317 0.34299481 9411739 -6.7217265e-06 -0.00086389086 0.99999964 3.8953327e-05
0.012163446 0.03971732 0.34299308 9411739 1.5940321e-05 -0.0011346742 0.99999934 5.0890525e-05
0.013489616 0.039717317 0.3429949 9411739 6.6863984e-05 -0.0008448569 0.99999964 3.7737864e-05
0.014815787 0.039717309 0.34299812 9411739 3.1031508e-05 -0.00029800463 0.99999994 1.3164163e-05
0.015699901 0.039717309 0.34300002 9411739 0 0 1 0
0.016584015 0.039717309 0.34300002 9411739 -0 0 1 0
0.017468128 0.039717309 0.34299815 9345946 -3.7333946e-05 -0.0002961063 0.99999994 1.3351526e-05
0.018352242 0.039717313 0.34299639 9345946 -6.3085899e-05 -0.00059121137 0.99999982 2.6268781e-05
0.019236358 0.039717317 0.34299457 9411739 -7.9354671e-05 -0.00088832882 0.99999958 3.8777911e-05
0.020120472 0.039717317 0.34299445 9411739 -2.4564755e-05 -0.00091261219 0.99999958 3.8219805e-05
0.021446642 0.039717328 0.34299123 9411739 6.0787499e-07 -0.0014512803 0.99999893 6.1170773e-05
0.022772811 0.03971732 0.3429926 9411739 -1.5980046e-05 -0.0012271537 0.99999923 5.1519892e-05
0.023656929 0.039717335 0.34298909 9411739 -8.282761e-05 -0.0017830645 0.99999839 7.6545373e-05
0.024541043 0.039717343 0.34298754 9411739 -0.00018481046 -0.0020244552 0.99999791 8.8910383e-05
0.025425158 0.03971735 0.34298617 9411737 -0.00027039618 -0.002284362 0.99999738 0.00010068004
0.026309276 0.039717361 0.34298494 9345944 -0.00033969208 -0.0025621648 0.99999666 0.00011169072
0.02719339 0.039717369 0.34298369 9345944 -0.00039682235 -0.0028278113 0.99999595 0.00012207993
0.02851956 0.039717376 0.34298325 9345944 -0.00033206871 -0.0030998585 0.99999511 0.00013077306
0.029845735 0.039717391 0.34298173 9411737 -0.00037699257 -0.003404615 0.99999416 0.0001443857
0.030729845 0.039717387 0.3429822 9411737 -0.00029576436 -0.0034443017 0.99999404 0.00014555418
0.031613961 0.039717413 0.34297967 9477530 -0.00023790171 -0.0039015019 0.99999237 0.00016701233
0.032498073 0.039717428 0.34297836 9411737 -0.00022713831 -0.0041081463 0.99999154 0.00017887267
0.033382185 0.03971744 0.34297729 9477017 -0.00020787802 -0.0043590576 0.99999046 0.00018768256
0.034266297 0.039717454 0.34297588 9477017 -0.00015586072 -0.0045860978 0.99998945 0.00019737979
0.035150405 0.039717488 0.34297317 9411224 -8.5982647e-05 -0.0050047981 0.99998748 0.00021509422
0.036476575 0.039717462 0.34297544 9345946 1.8753153e-05 -0.0047546565 0.99998868 0.00020201124
0.037802748 0.039717484 0.34297359 9477019 2.4785119e-05 -0.0049194624 0.9999879 0.00021461536
0.03868686 0.039717466 0.34297505 9477019 7.8628167e-05 -0.0047260323 0.99998885 0.00020662442
0.039570976 0.039717466 0.34297502 9411226 3.4414399e-05 -0.0046943249 0.99998897 0.00020765135
0.040455088 0.039717466 0.34297499 9477019 -1.5341848e-05 -0.0046917209 0.99998897 0.00020764218
0.041339204 0.039717484 0.34297374 9477019 -1.9412122e-05 -0.0049128523 0.99998796 0.00021597592
0.042223316 0.039717484 0.34297365 9477019 -5.4448254e-05 -0.0049228952 0.9999879 0.00021440655
0.043549486 0.039717462 0.3429752 9477019 -3.3926462e-05 -0.0047542471 0.99998868 0.00019884041
0.044875659 0.039717488 0.34297284 9411226 5.068453e-06 -0.0049962886 0.99998754 0.00021163086
0.045759771 0.039717469 0.34297469 9411224 0.00010316465 -0.004764915 0.99998862 0.00020571897
0.046643883 0.039717454 0.34297609 9411224 0.00015046059 -0.0045541734 0.99998963 0.00019753166
0.047527991 0.039717436 0.34297791 9477017 0.00022284764 -0.0042314869 0.999991 0.00018772978
0.048412103 0.039717417 0.34297946 9476247 0.00025082787 -0.0039842082 0.99999201 0.00017672185
0.049296223 0.039717432 0.34297797 9607833 0.00022913866 -0.0041207704 0.99999148 0.00018595671
0.050180335 0.039717417 0.34297934 9542040 0.0001821 -0.0038727142 0.99999249 0.0001739875
0.051506508 0.039717387 0.34298229 9607833 0.00018048531 -0.0034128332 0.99999416 0.00015112896
0.052832685 0.039717391 0.34298143 9673626 9.3173629e-05 -0.0033984091 0.99999422 0.00015393207
0.053716797 0.03971738 0.34298292 9673626 6.066405e-05 -0.0031669468 0.99999499 0.00014437652
0.054600932 0.039717417 0.3429777 9607833 -0.00073769013 -0.0036828874 0.99999297 0.00017883592
0.055485163 0.03971754 0.34296402 9607835 -0.0027891228 -0.0047900309 0.99998462 0.000274705
0.056369603 0.039717741 0.34294486 9607835 -0.0063489061 -0.0060136607 0.99996173 0.00040319641
0.057254639 0.039718106 0.34291539 9607835 -0.01239346 -0.0073937522 0.99989587 0.00071971363
0.058140017 0.039718471 0.34289265 9542042 -0.019942522 -0.0087975245 0.99976242 0.0010347359
0.059468411 0.039718911 0.34287158 9542042 -0.033646647 -0.010631455 0.99937725 0.0016677832
0.060796224 0.039719012 0.34287059 9673628 -0.048012026 -0.012489036 0.99876869 0.0021601201
0.061680261 0.039718863 0.34288642 9607835 -0.058617696 -0.013730199 0.99818605 0.0023531355
0.062563308 0.039718505 0.34291419 9673628 -0.070551381 -0.014795608 0.99739844 0.0024518801
0.063445248 0.03971798 0.34295326 9607835 -0.084513001 -0.016413761 0.99628717 0.0025270095
0.06432604 0.039717287 0.34300163 9607835 -0.10069647 -0.018066652 0.99475312 0.0025930165
0.065204859 0.039716329 0.34306738 9673115 -0.11990448 -0.019946204 0.99258506 0.0026764662
0.066517942 0.03971412 0.34320885 9541529 -0.1529922 -0.02348523 0.9879483 0.0027307915
0.067823157 0.03971073 0.34340069 9673113 -0.19197185 -0.027465222 0.98101604 0.0028699313
0.068687111 0.039707627 0.34355962 9673113 -0.22237882 -0.030542079 0.97448182 0.0029555575
0.069544047 0.0397035 0.34374604 9607320 -0.25660244 -0.033853829 0.96592396 0.0030475697
-0.024500759 0.040605251 0.34251615 9543071 -0.059377387 -0.0060870131 0.99821705 0.00084313302
-0.023183562 0.040603366 0.34265497 9609118 -0.055402607 -0.0045855856 0.99845356 0.00098971825
-0.022305725 0.040602528 0.34275103 9543325 -0.050231952 -0.0038298001 0.99873024 0.0012281948
-0.021426799 0.040602025 0.34284014 9543325 -0.043482229 -0.0033974473 0.99904841 0.0015294346
-0.020546358 0.04060163 0.34292048 9543325 -0.035823304 -0.0025688102 0.99935484 0.0017751687
-0.019664364 0.040601447 0.34298688 9543325 -0.027503036 -0.0021570069 0.99961936 0.0019960178
-0.018781006 0.040601369 0.34303513 9543325 -0.018119471 -0.0019200527 0.999834 0.0021550674
-0.017454475 0.040601384 0.34305039 9543325 -0.0047978889 -0.0013584716 0.99998754 0.0022103284
-0.016128115 0.040601429 0.34301898 9543325 0.0080683827 -0.00030877307 0.9999674 0.0021356894
-0.015244244 0.040601414 0.34298313 9543325 0.017119424 -7.8531084e-05 0.99985343 0.0020900783
-0.014361169 0.040601369 0.3429105 9477532 0.021892199 7.8365265e-05 0.99976033 0.0019877399
-0.013478783 0.040601265 0.34282601 9543325 0.025343463 0.00055927096 0.99967867 0.0018717948
-0.0125969 0.040600952 0.3427363 9477532 0.027617298 0.0012942292 0.99961776 0.0017480286
-0.011714994 0.040600739 0.34264973 9543325 0.028588813 0.0015035502 0.9995901 0.0016656134
-0.010832202 0.040600173 0.34257603 9543325 0.027399769 0.002291183 0.99962193 0.0016039577
-0.0099472115 0.040599577 0.34252384 9543325 0.022279849 0.0030134467 0.99974722 0.0016267997
-0.0028590143 0.040599618 0.3424944 9477532 -0.019634685 0.0028877128 0.99980307 0.0015958524
-0.0015320217 0.040600047 0.34256878 9477532 -0.026083108 0.0025385176 0.99965656 0.0014711864
-0.00020577355 0.040600564 0.34266877 9411739 -0.031792641 0.0020019426 0.99949247 0.0013517375
0.00067731453 0.040600888 0.34274364 9477532 -0.034099415 0.0016126864 0.99941713 0.001238883
0.0015598057 0.040601097 0.34281793 9477532 -0.035447743 0.001315933 0.99937069 0.0011238273
0.0024420563 0.040601291 0.3428857 9477532 -0.03600404 0.00076958427 0.99935132 0.0010173679
0.0033242106 0.040601414 0.34294629 9477532 -0.035754196 -3.1953397e-05 0.99936062 0.00091918843
0.0042065778 0.040601425 0.34299567 9477532 -0.034376547 -0.00077256479 0.99940866 0.00084079703
0.0055313464 0.040601354 0.34303838 9411739 -0.029627671 -0.0014227348 0.99956 0.00076683069
0.0068575535 0.040601302 0.34304875 9411739 -0.02169537 -0.0019755932 0.99976265 0.00071186566
0.0077418876 0.040601302 0.34304965 9477532 -0.015999293 -0.001984705 0.99987006 0.0006320934
0.0086264824 0.040601313 0.34303609 9477532 -0.01102245 -0.0024345284 0.99993628 0.0005165413
0.0095109446 0.040601365 0.34301916 9411739 -0.0064117168 -0.0023461452 0.99997669 0.00037124721
0.010395209 0.040601414 0.34300286 9411739 -0.002570882 -0.0021862441 0.99999428 0.00020617155
0.011279332 0.040601451 0.3429887 9411739 -7.7106397e-06 -0.0021412792 0.99999774 8.9761583e-05
0.012163445 0.040601462 0.34298706 9411739 6.9900184e-06 -0.00239888 0.99999714 0.00010082312
0.013489619 0.040601462 0.34298718 9411739 -7.7908313e-05 -0.0024429874 0.99999702 9.9501587e-05
0.014815791 0.040601499 0.34298152 9411739 -6.1473424e-05 -0.0032783551 0.99999464 0.00013592701
0.015699901 0.040601499 0.34298149 9411739 5.5026594e-05 -0.0032745376 0.99999464 0.00013690675
0.016584015 0.040601499 0.34298137 9411739 1.5296433e-05 -0.0033117521 0.99999452 0.00013670538
0.017468128 0.040601503 0.34298128 9411739 -5.238373e-05 -0.0032980766 0.99999458 0.00013698963
0.018352244 0.040601499 0.34298137 9411739 -0.00011858771 -0.0033255254 0.99999446 0.00013694644
0.01923636 0.040601499 0.34298143 9477532 -0.00016723269 -0.0033501138 0.9999944 0.00013617717
0.020120475 0.040601503 0.34298131 9411739 -0.00016787805 -0.0033993549 0.99999422 0.00013267533
0.021446649 0.040601499 0.34298176 9411739 -0.00023616926 -0.0034139764 0.99999416 0.00013169531
0.022772824 0.040601533 0.34297809 9411739 -0.00035995062 -0.0040213671 0.99999183 0.00015942035
0.02365694 0.040601529 0.34297851 9411739 -0.00040511892 -0.0040480806 0.99999171 0.00016041129
0.024541054 0.040601559 0.34297559 9477532 -0.00043935952 -0.0045722905 0.99998945 0.00018204162
0.025425171 0.040601578 0.34297425 9411739 -0.00053238956 -0.0048742709 0.99998796 0.00019293257
0.026309291 0.040601589 0.34297344 9411739 -0.00063753163 -0.0051645576 0.99998647 0.00020337314
0.027193405 0.040601604 0.34297252 9411739 -0.00071291398 -0.0054385723 0.99998498 0.00021251418
0.028519575 0.040601611 0.34297255 9345946 -0.00055643998 -0.0057529202 0.99998331 0.00021922942
0.02984575 0.040601652 0.34296983 9411739 -0.00048041277 -0.0063008131 0.99998003 0.0002415023
0.030729862 0.040601671 0.34296876 9411739 -0.00046582395 -0.0065385452 0.99997854 0.00025333799
0.031613976 0.04060166 0.34296978 9477532 -0.00043273999 -0.0065210895 0.99997866 0.00025379742
0.032498088 0.040601678 0.34296882 9477532 -0.00046195768 -0.0067353547 0.99997723 0.00026316789
0.033382196 0.040601693 0.34296805 9477017 -0.00048178408 -0.0069920006 0.99997544 0.00027257481
